ply
format ascii 1.0
comment Generated by royaleviewer 4.24.0.1201
element vertex 1183
property float x
property float y
property float z
property float amplitude
property uchar red
property uchar green
property uchar blue
element face 0
property list uchar int vertex_index
end_header
0.109943 0.0396974 0.489233 70 10 10 10
0.112233 0.0396993 0.488939 77 11 11 11
0.114943 0.0398362 0.49048 70 10 10 10
0.117375 0.0398716 0.490771 65 9 9 9
0.119904 0.0399474 0.491353 66 9 9 9
0.123115 0.0402322 0.494693 61 8 8 8
0.125512 0.040244 0.494645 60 8 8 8
0.126844 0.0399391 0.490515 68 9 9 9
0.131744 0.0407276 0.500002 64 9 9 9
0.134737 0.0409079 0.501985 59 8 8 8
0.139425 0.0416074 0.510135 59 8 8 8
0.141978 0.0416352 0.510242 60 8 8 8
0.145735 0.0420291 0.514599 60 8 8 8
0.148902 0.0422212 0.516679 68 9 9 9
0.152035 0.0424176 0.51859 85 12 12 12
0.154576 0.0424279 0.518426 75 10 10 10
0.160784 0.0434447 0.530311 72 10 10 10
0.163294 0.043441 0.529726 80 11 11 11
0.167119 0.0437688 0.533388 88 12 12 12
0.171583 0.0442678 0.538883 92 13 13 13
0 0 0 120 0 0 0
0.19902 0.0498331 0.605529 270 40 40 40
0.199805 0.0493139 0.598528 452 68 68 68
0.202149 0.0491834 0.596252 428 65 65 65
0.202764 0.0486459 0.589033 400 60 60 60
0.199926 0.0473012 0.572048 443 67 67 67
0.201918 0.0471241 0.569187 443 67 67 67
0.197574 0.0454883 0.548716 662 100 100 100
0.199782 0.045384 0.546728 854 130 130 130
0.200752 0.0450043 0.54143 1043 159 159 159
0.203608 0.0450515 0.541256 1022 156 156 156
0.20634 0.0450837 0.540667 1062 162 162 162
0.207797 0.0448262 0.536804 1052 160 160 160
0.209951 0.0447232 0.534797 1027 156 156 156
0.212748 0.0447538 0.534352 812 123 123 123
0.207831 0.0431976 0.514786 638 97 97 97
0.208213 0.0427531 0.508697 630 96 96 96
0.208966 0.0423907 0.503565 555 84 84 84
0.206351 0.0413778 0.490555 594 90 90 90
0.203531 0.0403314 0.477353 664 101 101 101
0.20492 0.040149 0.474198 785 119 119 119
0.205049 0.0397112 0.468226 976 149 149 149
0.207598 0.0397491 0.467855 1093 167 167 167
0.207763 0.0393471 0.462115 1237 189 189 189
0.210969 0.0395108 0.463193 1120 171 171 171
0.214126 0.0396617 0.464113 1078 164 164 164
0.216654 0.0396964 0.463652 1155 176 176 176
0.219314 0.039754 0.463441 1174 179 179 179
0.223915 0.0401611 0.467293 1184 181 181 181
0.226588 0.040217 0.467048 1288 197 197 197
0.22886 0.0402067 0.466016 1409 215 215 215
0.231459 0.0402371 0.465623 1352 206 206 206
0.233573 0.0402015 0.464298 1230 188 188 188
0.235482 0.040121 0.462622 1058 161 161 161
0.236476 0.0398896 0.459212 1045 159 159 159
0.238188 0.0397874 0.457294 954 145 145 145
0.239308 0.0395782 0.454348 852 130 130 130
0.241148 0.0394925 0.452805 754 115 115 115
0.242978 0.0394138 0.45136 694 105 105 105
0.243278 0.0390947 0.447182 669 102 102 102
0.244707 0.0389497 0.445177 638 97 97 97
0.247008 0.0389489 0.444821 557 84 84 84
0.249145 0.0389309 0.444298 485 73 73 73
0.249945 0.038692 0.441434 428 65 65 65
0.247407 0.0379534 0.432885 436 66 66 66
0.24853 0.037788 0.430908 435 66 66 66
0.248045 0.0373736 0.426264 413 62 62 62
-0.345938 0.0573314 0.617022 236 35 35 35
-0.342257 0.0572408 0.616564 257 38 38 38
-0.33579 0.0567051 0.611074 274 41 41 41
-0.332791 0.056713 0.611941 274 41 41 41
-0.329185 0.0566474 0.611762 294 44 44 44
-0.325 0.0564646 0.610584 309 46 46 46
-0.321103 0.0563349 0.609954 326 49 49 49
-0.316659 0.056112 0.608328 353 53 53 53
-0.31336 0.0560747 0.608936 388 58 58 58
-0.310167 0.0560589 0.609776 418 63 63 63
-0.306451 0.0559538 0.609642 458 69 69 69
-0.302824 0.0558663 0.609693 497 75 75 75
-0.296936 0.0553414 0.605184 573 87 87 87
-0.293041 0.0552012 0.60462 626 95 95 95
-0.290331 0.0552659 0.606524 660 100 100 100
-0.287606 0.0553326 0.608452 567 86 86 86
-0.29118 0.0566295 0.623894 468 71 71 71
-0.287999 0.0566262 0.625059 461 70 70 70
-0.284826 0.0566071 0.626238 540 82 82 82
-0.280602 0.0563931 0.625024 635 96 96 96
-0.277335 0.0563768 0.625974 661 100 100 100
-0.273859 0.0562915 0.626387 612 93 93 93
-0.27262 0.0566905 0.63192 543 82 82 82
-0.269887 0.0567671 0.634104 490 74 74 74
-0.269325 0.0573245 0.641412 493 75 75 75
-0.264681 0.0570199 0.639059 510 77 77 77
-0.264611 0.0576787 0.647728 481 73 73 73
-0.261709 0.0577549 0.649609 481 73 73 73
-0.258247 0.0577024 0.65004 557 84 84 84
-0.255079 0.0576931 0.651157 561 85 85 85
-0.252259 0.0577847 0.653171 548 83 83 83
-0.250542 0.0581343 0.658086 576 87 87 87
-0.247627 0.0581889 0.659892 591 90 90 90
-0.246735 0.0587484 0.667166 523 79 79 79
-0.244612 0.0590203 0.671186 471 71 71 71
-0.242118 0.0592131 0.67427 487 74 74 74
-0.238945 0.0592372 0.675436 499 75 75 75
-0.235588 0.059215 0.676051 504 76 76 76
-0.23217 0.0591758 0.676448 496 75 75 75
-0.229626 0.059361 0.67939 499 75 75 75
-0.227372 0.0596269 0.683262 459 69 69 69
-0.225068 0.0599088 0.687025 441 67 67 67
-0.221981 0.0599642 0.688448 420 63 63 63
-0.218496 0.0599116 0.68863 423 64 64 64
-0.21458 0.0597366 0.687357 409 62 62 62
-0.197445 0.0558332 0.642895 553 84 84 84
-0.190322 0.0546656 0.630105 570 86 86 86
-0.186526 0.0544512 0.628034 557 84 84 84
-0.179465 0.0532338 0.61459 574 87 87 87
-0.17396 0.0524698 0.606135 596 90 90 90
-0.170562 0.0523058 0.604807 579 88 88 88
-0.166847 0.0520559 0.60226 624 95 95 95
-0.161918 0.0513915 0.595092 615 93 93 93
-0.157053 0.050742 0.587866 628 95 95 95
-0.154015 0.0506502 0.587293 619 94 94 94
-0.150839 0.050527 0.586139 521 79 79 79
-0.147347 0.0502895 0.583638 490 74 74 74
-0.144374 0.0502219 0.583089 389 59 59 59
-0.142236 0.0504346 0.586009 160 23 23 23
-0.139738 0.0505363 0.58739 93 13 13 13
-0.136766 0.050473 0.586871 81 11 11 11
-0.130872 0.0492865 0.57346 79 11 11 11
-0.1284 0.0493834 0.574763 73 10 10 10
-0.12664 0.0497624 0.579332 70 10 10 10
-0.124285 0.049918 0.581284 66 9 9 9
-0.118062 0.0484972 0.564875 59 8 8 8
-0.116926 0.0491292 0.572565 74 10 10 10
-0.114041 0.0490482 0.571741 67 9 9 9
-0.110823 0.0488225 0.569211 67 9 9 9
-0.107562 0.0485724 0.566378 69 9 9 9
-0.106327 0.0492197 0.5742 66 9 9 9
-0.103005 0.0489347 0.57094 66 9 9 9
-0.10033 0.0489482 0.571145 60 8 8 8
-0.0983494 0.0493088 0.5754 60 8 8 8
-0.0960454 0.0495029 0.577905 62 8 8 8
-0.0924173 0.0490323 0.572422 58 8 8 8
-0.0891656 0.0487271 0.568871 54 7 7 7
-0.0869676 0.0489868 0.572086 50 7 7 7
-0.0845737 0.0491658 0.57417 65 9 9 9
-0.0821476 0.0493278 0.576228 66 9 9 9
-0.0793531 0.0492776 0.575599 68 9 9 9
-0.0751936 0.0483375 0.564764 68 9 9 9
-0.0724221 0.0482698 0.563914 86 12 12 12
-0.0703936 0.0486908 0.568943 86 12 12 12
-0.068417 0.0491986 0.574781 68 9 9 9
-0.0654951 0.049033 0.572959 64 9 9 9
-0.0620414 0.0484366 0.566082 45 6 6 6
-0.0596925 0.0487039 0.569077 38 5 5 5
-0.0586439 0.050086 0.585286 44 6 6 6
-0.054297 0.0486469 0.568527 47 6 6 6
-0.0511318 0.0481872 0.563194 51 7 7 7
-0.0481737 0.0478641 0.559441 51 7 7 7
-0.0455799 0.0479028 0.559915 42 5 5 5
-0.0433183 0.0483145 0.564734 48 6 6 6
-0.0395859 0.0470304 0.549712 47 6 6 6
-0.0377793 0.0480123 0.561177 39 5 5 5
-0.0354314 0.0484229 0.56593 37 5 5 5
-0.032567 0.0481088 0.562212 42 5 5 5
-0.0293985 0.0472748 0.55242 42 5 5 5
-0.0266927 0.0470452 0.549872 49 6 6 6
-0.0242543 0.0473383 0.553218 51 7 7 7
-0.0216236 0.0472603 0.552409 49 6 6 6
-0.0190343 0.047281 0.552554 47 6 6 6
-0.016439 0.0472684 0.552475 43 5 5 5
-0.0138486 0.0472849 0.552554 41 5 5 5
-0.0112992 0.0474566 0.554612 37 5 5 5
-0.00849568 0.0464353 0.542726 37 5 5 5
-0.00594675 0.0463946 0.542284 44 6 6 6
-0.0034032 0.0463665 0.541972 39 5 5 5
-0.000859688 0.0461752 0.539752 43 5 5 5
0.00168672 0.0461863 0.539882 41 5 5 5
0.00417562 0.0457354 0.534595 40 5 5 5
0.00651841 0.0446224 0.521553 41 5 5 5
0.00901897 0.0449019 0.524788 40 5 5 5
0.0115807 0.0452376 0.528663 45 6 6 6
0.0140323 0.0451363 0.527603 44 6 6 6
0.0165384 0.0452254 0.52858 43 5 5 5
0.0190752 0.0453484 0.530126 44 6 6 6
0.0217265 0.045696 0.534091 48 6 6 6
0.0243237 0.0458845 0.536372 46 6 6 6
0.0259786 0.0444119 0.519046 46 6 6 6
0.0284366 0.0444312 0.51933 48 6 6 6
0.0304771 0.0438668 0.512792 45 6 6 6
0.0327244 0.0436378 0.510141 49 6 6 6
0.0355547 0.0441817 0.516526 55 7 7 7
0.0379776 0.0441803 0.516537 56 7 7 7
0.0409362 0.0447629 0.523344 51 7 7 7
0.043044 0.0444001 0.519097 54 7 7 7
0.0449852 0.0439272 0.513548 48 6 6 6
0.046937 0.0434961 0.508487 49 6 6 6
0.0493446 0.0435209 0.508725 55 7 7 7
0.0513144 0.0431737 0.504615 51 7 7 7
0.0535737 0.043073 0.503568 45 6 6 6
0.0561616 0.0432468 0.505533 50 7 7 7
0.0591377 0.0437036 0.510789 52 7 7 7
0.0612528 0.0434854 0.508323 56 7 7 7
0.0636062 0.0434705 0.50805 53 7 7 7
0.0656027 0.0432048 0.505013 51 7 7 7
0.0678462 0.0431282 0.503987 50 7 7 7
0.0698938 0.0429292 0.501715 55 7 7 7
0.0715205 0.0425066 0.496632 60 8 8 8
0.0742139 0.0427082 0.499009 62 8 8 8
0.0769113 0.0428976 0.501244 57 8 8 8
0.0783167 0.0423902 0.495141 57 8 8 8
0.0797499 0.0419185 0.489621 57 8 8 8
0.081664 0.0417095 0.48717 57 8 8 8
0.085932 0.0427026 0.498564 60 8 8 8
0.0881368 0.0426363 0.497749 51 7 7 7
0.090552 0.0426638 0.498028 59 8 8 8
0.0919869 0.0422452 0.493086 65 9 9 9
0.0940171 0.0421276 0.491463 72 10 10 10
0.0954089 0.0417205 0.486643 71 10 10 10
0.0980573 0.0418677 0.488273 72 10 10 10
0.100842 0.0420637 0.490457 66 9 9 9
0.103465 0.0421893 0.491819 68 9 9 9
0.105492 0.0420863 0.490321 67 9 9 9
0.107502 0.0419649 0.488773 61 8 8 8
0.110185 0.0421044 0.490264 65 9 9 9
0.112426 0.0420712 0.489728 69 9 9 9
0.114555 0.0420031 0.488771 70 10 10 10
0.116634 0.0419282 0.487555 65 9 9 9
0.118935 0.0419237 0.487323 62 8 8 8
0.121858 0.0421335 0.489564 67 9 9 9
0.124695 0.0423051 0.49136 66 9 9 9
0.127263 0.0423951 0.49201 69 9 9 9
0.129281 0.0422858 0.490527 68 9 9 9
0.134853 0.0433263 0.502346 56 7 7 7
0.138608 0.0437668 0.507012 58 8 8 8
0.141904 0.0440379 0.509897 59 8 8 8
0.145254 0.0443106 0.512762 72 10 10 10
0.149296 0.0448019 0.517963 67 9 9 9
0.151598 0.0447467 0.517012 74 10 10 10
0.154687 0.0449327 0.518657 82 11 11 11
0.159543 0.0456055 0.52607 69 9 9 9
0.162752 0.0458093 0.527873 76 11 11 11
0.165647 0.045915 0.52854 92 13 13 13
0.170083 0.0464253 0.53402 98 14 14 14
0.176288 0.0474121 0.544766 107 15 15 15
0 0 0 175 0 0 0
0.194792 0.0508685 0.58334 322 48 48 48
0 0 0 426 0 0 0
0.196263 0.0498227 0.569961 479 72 72 72
0.198686 0.0497406 0.568311 556 84 84 84
0.19726 0.0487145 0.555873 595 90 90 90
0.198068 0.0482551 0.549922 647 98 98 98
0.19969 0.0480032 0.54631 790 120 120 120
0.201207 0.0477327 0.542494 967 147 147 147
0.203029 0.0475358 0.539504 1039 158 158 158
0.205147 0.0474161 0.537376 1084 165 165 165
0.207359 0.0473381 0.535508 973 148 148 148
0.20964 0.0472558 0.533775 1029 157 157 157
0.212842 0.0473843 0.534421 718 109 109 109
0.208092 0.0457569 0.515254 523 79 79 79
0.204521 0.0444409 0.49946 519 79 79 79
0.202008 0.043367 0.486604 583 88 88 88
0.202596 0.042992 0.48142 624 95 95 95
0.202221 0.0424108 0.47411 733 111 111 111
0.203126 0.0421049 0.469895 944 144 144 144
0.204879 0.0419951 0.467669 995 152 152 152
0.205597 0.0416625 0.463144 1161 177 177 177
0.207649 0.0416073 0.461695 1227 187 187 187
0.210737 0.0417583 0.462532 1205 184 184 184
0.213536 0.0418646 0.462664 1195 182 182 182
0.216713 0.0420294 0.463608 1177 179 179 179
0.219554 0.0421259 0.463794 1195 182 182 182
0.224165 0.0425589 0.467655 1197 183 183 183
0.227067 0.0426457 0.46786 1338 204 204 204
0.229175 0.0426042 0.466482 1391 212 212 212
0.230861 0.0424856 0.464262 1297 198 198 198
0.232922 0.0424273 0.462861 1127 172 172 172
0.23398 0.0421915 0.459543 1121 171 171 171
0.235096 0.0419759 0.456437 1113 170 170 170
0.237314 0.0419455 0.455518 946 144 144 144
0.238766 0.041802 0.453219 881 134 134 134
0.240923 0.04177 0.452299 769 117 117 117
0.243136 0.0417397 0.451568 718 109 109 109
0.243946 0.0414912 0.448308 644 98 98 98
0.24444 0.0411853 0.444633 595 90 90 90
0.246104 0.041069 0.443176 519 79 79 79
0.247428 0.0409179 0.441176 484 73 73 73
0.245501 0.0402277 0.433566 476 72 72 72
0.246771 0.0400754 0.431755 486 73 73 73
0.245879 0.0395684 0.426317 466 70 70 70
0.24611 0.0392529 0.422958 464 70 70 70
-0.340321 0.0595087 0.606959 251 37 37 37
-0.337253 0.0595252 0.607468 259 39 39 39
-0.333574 0.0594213 0.606962 276 41 41 41
-0.330693 0.0594649 0.607984 281 42 42 42
-0.324711 0.0589526 0.603314 306 46 46 46
-0.321026 0.0588611 0.602965 337 51 51 51
-0.316614 0.0586184 0.601297 376 57 57 57
-0.311026 0.0581537 0.597339 424 64 64 64
-0.307199 0.058002 0.596798 496 75 75 75
-0.303903 0.0579518 0.597296 533 81 81 81
-0.301141 0.0580105 0.598894 574 87 87 87
-0.298105 0.0580202 0.600007 630 96 96 96
-0.295518 0.0581216 0.602069 649 98 98 98
-0.293498 0.0583205 0.605338 706 107 107 107
-0.289554 0.0581409 0.604678 813 124 124 124
-0.286482 0.058138 0.60583 871 133 133 133
-0.284085 0.0582775 0.608469 876 133 133 133
-0.280651 0.0582046 0.608869 831 126 126 126
-0.279096 0.0585234 0.613371 703 107 107 107
-0.280521 0.0594853 0.624617 540 82 82 82
-0.277158 0.059442 0.625304 551 83 83 83
-0.274049 0.0594311 0.62653 609 92 92 92
-0.270581 0.0593669 0.626971 663 101 101 101
-0.267258 0.059307 0.627634 619 94 94 94
-0.266297 0.0598021 0.633957 547 83 83 83
-0.265569 0.0603567 0.640907 479 72 72 72
-0.262107 0.0602789 0.641376 495 75 75 75
-0.260274 0.0605949 0.645769 509 77 77 77
-0.257832 0.0607796 0.648772 480 73 73 73
-0.254528 0.0607364 0.649529 572 87 87 87
-0.251422 0.0607611 0.650783 642 97 97 97
-0.250039 0.0612076 0.656539 577 87 87 87
-0.247238 0.0613139 0.658634 597 90 90 90
-0.244397 0.0613905 0.660623 610 92 92 92
-0.242748 0.0617888 0.665847 565 86 86 86
-0.241278 0.062249 0.671708 538 81 81 81
-0.23827 0.0623133 0.673303 508 77 77 77
-0.234955 0.0622976 0.674012 521 79 79 79
-0.231813 0.0623331 0.675253 524 79 79 79
-0.228963 0.0624424 0.677273 527 80 80 80
-0.226148 0.062586 0.67943 499 75 75 75
-0.223056 0.0626331 0.680757 505 76 76 76
-0.221257 0.0630428 0.686007 459 69 69 69
-0.217726 0.0629698 0.685987 443 67 67 67
-0.21436 0.0629641 0.686437 424 64 64 64
0 0 0 487 0 0 0
-0.190732 0.0577995 0.631269 585 89 89 89
-0.187018 0.0575779 0.629494 545 83 83 83
-0.179436 0.0561584 0.614389 580 88 88 88
-0.175478 0.0558234 0.61131 560 85 85 85
-0.170418 0.055133 0.604117 587 89 89 89
-0.164969 0.0542769 0.595305 627 95 95 95
-0.161316 0.0540103 0.592702 628 95 95 95
-0.156873 0.0534639 0.587023 626 95 95 95
-0.154065 0.0534633 0.587334 536 81 81 81
-0.15132 0.053465 0.587836 334 50 50 50
-0.148187 0.0533516 0.586868 253 38 38 38
-0.14485 0.0531509 0.584919 214 32 32 32
-0.141757 0.0530324 0.583872 118 17 17 17
-0.138948 0.0530045 0.584005 89 13 13 13
-0.13558 0.0527752 0.581699 78 11 11 11
-0.131595 0.0522903 0.576552 82 11 11 11
-0.127895 0.0518984 0.572428 80 11 11 11
-0.125975 0.0522259 0.57622 79 11 11 11
-0.12237 0.0518525 0.572279 71 10 10 10
-0.118902 0.0515099 0.568834 70 10 10 10
-0.115282 0.0510933 0.564391 65 9 9 9
-0.112111 0.0508669 0.562011 67 9 9 9
-0.110317 0.0512677 0.566562 65 9 9 9
-0.108586 0.0517254 0.571725 73 10 10 10
-0.106888 0.0522119 0.577209 67 9 9 9
-0.10358 0.0519061 0.574095 65 9 9 9
-0.100965 0.0519484 0.57465 74 10 10 10
-0.0987286 0.05221 0.577596 62 8 8 8
-0.0959862 0.0521996 0.577532 58 8 8 8
-0.0933383 0.0522214 0.578005 57 8 8 8
-0.089246 0.0514392 0.56938 59 8 8 8
-0.0868911 0.0516386 0.571586 56 7 7 7
-0.0851652 0.0522344 0.578196 66 9 9 9
-0.0825182 0.0522657 0.57872 70 10 10 10
-0.0778149 0.0509804 0.564468 66 9 9 9
-0.0747383 0.0506756 0.561249 74 10 10 10
-0.0723178 0.0508382 0.562994 81 11 11 11
-0.0698289 0.0509557 0.564434 84 12 12 12
-0.0679196 0.0515252 0.570669 81 11 11 11
-0.065335 0.0515877 0.571483 63 9 9 9
-0.0627881 0.0517172 0.572827 50 7 7 7
-0.0612222 0.0526816 0.583597 39 5 5 5
-0.055594 0.0500756 0.554795 49 6 6 6
-0.0536519 0.0507126 0.561728 48 6 6 6
-0.0510912 0.0507969 0.562713 56 7 7 7
-0.0483124 0.0506418 0.561028 53 7 7 7
-0.0457717 0.0507498 0.562258 40 5 5 5
-0.042753 0.0503067 0.557364 47 6 6 6
-0.0402224 0.0504153 0.558566 48 6 6 6
-0.0378606 0.050763 0.5624 37 5 5 5
-0.0352643 0.0508221 0.563036 41 5 5 5
-0.0323628 0.0504394 0.55876 36 4 4 4
-0.029446 0.049914 0.553093 46 6 6 6
-0.0266023 0.0494715 0.548121 44 6 6 6
-0.0241255 0.0496859 0.550428 43 5 5 5
-0.021618 0.0498602 0.552478 43 5 5 5
-0.0189503 0.0496791 0.550368 44 6 6 6
-0.0163722 0.0496905 0.550579 42 5 5 5
-0.0138504 0.0499089 0.553067 39 5 5 5
-0.0111705 0.0495439 0.548903 37 5 5 5
-0.00862816 0.0497259 0.550953 31 4 4 4
-0.00593217 0.0487996 0.540722 36 4 4 4
-0.00335826 0.0482443 0.534602 38 5 5 5
-0.000862185 0.0488295 0.541088 42 5 5 5
0.0016817 0.0485551 0.538047 42 5 5 5
0.00414855 0.0479116 0.5309 41 5 5 5
0.00657571 0.0474644 0.525928 38 5 5 5
0.00905302 0.0475243 0.526559 36 4 4 4
0.0116064 0.0478563 0.530369 45 6 6 6
0.0140099 0.0475723 0.527157 42 5 5 5
0.0164297 0.0474207 0.525413 44 6 6 6
0.0189615 0.0475736 0.527189 43 5 5 5
0.0216144 0.0479722 0.531524 44 6 6 6
0.024114 0.047967 0.531534 46 6 6 6
0.026441 0.0476782 0.528399 44 6 6 6
0.0282431 0.04656 0.51588 46 6 6 6
0.0304905 0.0463027 0.513062 44 6 6 6
0.0330302 0.04647 0.514949 53 7 7 7
0.0351382 0.0460669 0.510499 50 7 7 7
0.0381144 0.0467789 0.518391 49 6 6 6
0.0401021 0.0462632 0.512677 43 5 5 5
0.0427167 0.0464863 0.515134 40 5 5 5
0.0445243 0.0458688 0.508262 42 5 5 5
0.0469936 0.0459441 0.50905 46 6 6 6
0.0494674 0.0460136 0.509949 49 6 6 6
0.0515228 0.0457183 0.506615 42 5 5 5
0.0540186 0.0458212 0.507694 44 6 6 6
0.0564629 0.0458565 0.508166 44 6 6 6
0.0588443 0.0458653 0.508171 50 7 7 7
0.0611565 0.0458047 0.50758 52 7 7 7
0.0629215 0.0453674 0.502627 63 9 9 9
0.0652267 0.0453204 0.502155 55 7 7 7
0.067002 0.0449347 0.497744 46 6 6 6
0.0688072 0.0445879 0.493936 53 7 7 7
0.0711427 0.0445846 0.493916 50 7 7 7
0.0742065 0.0450462 0.498862 63 9 9 9
0.0771972 0.0454202 0.503006 51 7 7 7
0.0783466 0.0447278 0.495325 63 9 9 9
0.0800269 0.0443747 0.491217 61 8 8 8
0.0828745 0.0446626 0.494375 62 8 8 8
0.0856128 0.0448757 0.49669 58 8 8 8
0.0882249 0.0450115 0.498133 55 7 7 7
0.0890015 0.044234 0.48947 61 8 8 8
0.0911162 0.0441351 0.488302 61 8 8 8
0.0934698 0.0441749 0.488484 58 8 8 8
0.0957387 0.0441578 0.488205 62 8 8 8
0.0980475 0.0441649 0.488178 61 8 8 8
0.100718 0.0443226 0.489801 59 8 8 8
0.102864 0.0442531 0.488912 64 9 9 9
0.104248 0.0438644 0.484482 60 8 8 8
0.106136 0.0436987 0.482502 65 9 9 9
0.110964 0.0447233 0.493662 67 9 9 9
0.112822 0.0445478 0.491385 63 9 9 9
0.114335 0.0442299 0.487711 65 9 9 9
0.116053 0.0440069 0.485053 69 9 9 9
0.118797 0.0441729 0.486685 68 9 9 9
0.121269 0.0442321 0.487138 68 9 9 9
0.124269 0.044477 0.489603 66 9 9 9
0.126819 0.044569 0.490228 67 9 9 9
0.130501 0.0450322 0.495072 62 8 8 8
0.135714 0.0459967 0.505419 65 9 9 9
0.136911 0.0455946 0.500729 62 8 8 8
0.141355 0.0462787 0.507773 62 8 8 8
0.14465 0.0465586 0.510535 69 9 9 9
0.147594 0.0467117 0.511903 70 10 10 10
0.149965 0.0467019 0.511288 70 10 10 10
0.15397 0.047176 0.516147 78 11 11 11
0.157493 0.0475004 0.519164 82 11 11 11
0.161501 0.0479467 0.52367 75 10 10 10
0.164639 0.0481404 0.525211 87 12 12 12
0.168725 0.0485794 0.529589 104 15 15 15
0.17285 0.0490369 0.533973 106 15 15 15
0 0 0 160 0 0 0
0.18704 0.0515437 0.559945 392 59 59 59
0.189214 0.0513905 0.557807 578 88 88 88
0.191456 0.0512722 0.555817 638 97 97 97
0.19353 0.0511122 0.55338 757 115 115 115
0.19524 0.0508662 0.549999 853 130 130 130
0.197712 0.0508174 0.548752 846 129 129 129
0.199687 0.0506432 0.54612 839 128 128 128
0.201276 0.0503765 0.542496 862 131 131 131
0.202146 0.0499344 0.536975 972 148 148 148
0.204509 0.0498717 0.535524 1073 164 164 164
0.206964 0.0498321 0.534304 998 152 152 152
0.208688 0.0496327 0.53117 984 150 150 150
0.2106 0.0494648 0.528548 576 87 87 87
0.202279 0.0469305 0.500685 509 77 77 77
0.200613 0.0459948 0.489746 522 79 79 79
0.198966 0.0450692 0.479106 728 111 111 111
0.198614 0.0444553 0.471791 883 134 134 134
0.201135 0.0445065 0.471361 908 138 138 138
0.20023 0.0437916 0.46298 1059 161 161 161
0.202743 0.043835 0.462627 1104 168 168 168
0.205249 0.0438879 0.462194 1105 168 168 168
0.207668 0.0439089 0.461571 1204 184 184 184
0.210347 0.0439835 0.461492 1231 188 188 188
0.214446 0.0443498 0.464467 1129 172 172 172
0.217105 0.0444164 0.464276 1150 175 175 175
0.220491 0.0446285 0.465601 1252 191 191 191
0.223404 0.0447441 0.465879 1325 202 202 202
0.226404 0.0448774 0.466353 1427 218 218 218
0.228349 0.0447849 0.464628 1414 216 216 216
0.230579 0.044771 0.463553 1254 191 191 191
0.231984 0.0445855 0.460854 1189 181 181 181
0.23322 0.0443741 0.457908 1157 176 176 176
0.235043 0.044267 0.456189 1056 161 161 161
0.235931 0.0440054 0.452736 967 147 147 147
0.238924 0.0441272 0.453375 873 133 133 133
0.239288 0.0437734 0.449145 751 114 114 114
0.241637 0.0437722 0.448712 705 107 107 107
0.243109 0.0436182 0.446713 670 102 102 102
0.244641 0.0434849 0.444927 546 83 83 83
0.244609 0.0430827 0.44041 474 72 72 72
0.242542 0.0423245 0.432432 480 73 73 73
0.243131 0.0420281 0.429348 501 76 76 76
0.243423 0.0417098 0.425903 518 78 78 78
0.245228 0.0416431 0.425196 463 70 70 70
0.245605 0.0413255 0.422094 456 69 69 69
-0.334674 0.0615836 0.59686 275 41 41 41
-0.3328 0.0618039 0.599385 279 42 42 42
-0.325569 0.0610337 0.592299 279 42 42 42
-0.32624 0.0617335 0.599679 284 42 42 42
-0.326525 0.0623793 0.606588 283 42 42 42
-0.320397 0.0618068 0.60165 289 43 43 43
-0.313942 0.0611493 0.596072 308 46 46 46
-0.310657 0.0611051 0.59646 357 54 54 54
-0.307748 0.0611417 0.597656 395 59 59 59
-0.304859 0.0611696 0.598968 468 71 71 71
-0.300776 0.060984 0.597983 546 83 83 83
-0.297659 0.06095 0.598863 626 95 95 95
-0.295243 0.0610891 0.601263 667 101 101 101
-0.291815 0.0610228 0.601621 722 110 110 110
-0.289303 0.0611315 0.603907 735 112 112 112
-0.287086 0.0613097 0.606863 774 118 118 118
-0.284084 0.0613262 0.608222 876 133 133 133
-0.281011 0.0613272 0.609406 942 143 143 143
-0.276993 0.0611192 0.608508 968 147 147 147
-0.274027 0.0611452 0.609916 893 136 136 136
-0.271358 0.0612182 0.611977 764 116 116 116
-0.274204 0.0625715 0.626637 591 90 90 90
-0.270751 0.062502 0.627072 576 87 87 87
-0.267061 0.0623589 0.62693 647 98 98 98
-0.263564 0.0622739 0.627159 733 111 111 111
-0.261233 0.0624701 0.630199 683 104 104 104
-0.261413 0.0632522 0.63938 541 82 82 82
-0.25916 0.0634839 0.642761 511 77 77 77
-0.256481 0.0635883 0.645074 590 89 89 89
-0.254106 0.0637985 0.648206 535 81 81 81
-0.251712 0.0640034 0.65129 591 90 90 90
-0.247563 0.0637608 0.649798 716 109 109 109
-0.246497 0.0643158 0.656416 640 97 97 97
-0.244073 0.0644987 0.659447 628 95 95 95
-0.241471 0.0646657 0.6621 625 95 95 95
-0.23847 0.0647289 0.663649 619 94 94 94
-0.235969 0.0649245 0.666559 570 86 86 86
-0.234407 0.0653871 0.672197 560 85 85 85
-0.231313 0.0654565 0.673554 549 83 83 83
-0.228157 0.0654807 0.67467 551 83 83 83
-0.224911 0.065479 0.675475 554 84 84 84
-0.222565 0.0657423 0.679016 536 81 81 81
-0.218983 0.0656425 0.678786 513 78 78 78
-0.216349 0.0658492 0.681479 491 74 74 74
-0.213464 0.0659547 0.683353 463 70 70 70
-0.208111 0.0653169 0.677251 480 73 73 73
-0.191871 0.0611654 0.634888 572 87 87 87
-0.187366 0.0607013 0.630539 565 86 86 86
-0.180203 0.0593192 0.616806 570 86 86 86
-0.175975 0.0588992 0.612853 565 86 86 86
-0.170347 0.0579871 0.603751 572 87 87 87
-0.166133 0.0575128 0.599376 622 94 94 94
-0.16209 0.0571004 0.59544 622 94 94 94
-0.157026 0.0563057 0.587491 629 95 95 95
-0.153756 0.0561172 0.586036 547 83 83 83
-0.151194 0.056203 0.58725 264 39 39 39
-0.148403 0.0562039 0.587559 138 20 20 20
-0.144988 0.0559692 0.585384 106 15 15 15
-0.141628 0.0557387 0.583233 93 13 13 13
-0.138213 0.0554827 0.580812 79 11 11 11
-0.134914 0.0552624 0.578744 76 11 11 11
-0.131552 0.0549795 0.576207 88 12 12 12
-0.12847 0.0548289 0.574846 91 13 13 13
-0.124957 0.0544905 0.571496 73 10 10 10
-0.122165 0.0544489 0.571239 82 11 11 11
-0.119013 0.0542473 0.569303 72 10 10 10
-0.114769 0.0535178 0.561805 76 11 11 11
-0.112174 0.0535478 0.562278 71 10 10 10
-0.110973 0.0542586 0.569867 74 10 10 10
-0.108944 0.0545885 0.573457 68 9 9 9
-0.105448 0.0541883 0.569376 77 11 11 11
-0.103611 0.0546311 0.574136 75 10 10 10
-0.101597 0.0549911 0.578198 77 11 11 11
-0.0984375 0.0547511 0.575746 75 10 10 10
-0.0960243 0.0549326 0.577726 60 8 8 8
-0.0926224 0.0545298 0.573543 60 8 8 8
-0.0898731 0.0545073 0.573359 66 9 9 9
-0.0874079 0.0546411 0.574988 64 9 9 9
-0.0853516 0.0550638 0.579453 66 9 9 9
-0.0825387 0.0550079 0.578865 63 9 9 9
-0.0781904 0.0538875 0.567074 64 9 9 9
-0.0749662 0.0534826 0.562978 69 9 9 9
-0.0723306 0.0534996 0.563138 80 11 11 11
-0.0697104 0.0535096 0.563374 83 12 12 12
-0.0667096 0.0532327 0.560423 80 11 11 11
-0.0648052 0.0538382 0.56691 62 8 8 8
-0.0623579 0.054026 0.568817 41 5 5 5
-0.0589712 0.0533755 0.562063 42 5 5 5
-0.0548377 0.0519719 0.54718 57 8 8 8
-0.0536518 0.0533576 0.561847 47 6 6 6
-0.0513501 0.0537001 0.565513 49 6 6 6
-0.0486967 0.0536899 0.565449 49 6 6 6
-0.0456452 0.0532326 0.560675 51 7 7 7
-0.0428648 0.0530527 0.558806 51 7 7 7
-0.0404128 0.0532801 0.561209 47 6 6 6
-0.037665 0.0531195 0.559509 41 5 5 5
-0.0348662 0.052855 0.556714 34 4 4 4
-0.0322278 0.0528358 0.556485 37 5 5 5
-0.0294761 0.0525776 0.553739 47 6 6 6
-0.0267001 0.0522518 0.550249 39 5 5 5
-0.024136 0.052258 0.550432 45 6 6 6
-0.0216086 0.0524126 0.552001 49 6 6 6
-0.0189493 0.0522244 0.550103 46 6 6 6
-0.016303 0.0520353 0.548018 43 5 5 5
-0.013461 0.0510102 0.537288 37 5 5 5
-0.011159 0.0520473 0.548102 25 3 3 3
-0.00852905 0.0516917 0.54439 34 4 4 4
-0.00592035 0.051216 0.539413 35 4 4 4
-0.00340455 0.0514336 0.541739 34 4 4 4
-0.000857441 0.0510672 0.537879 38 5 5 5
0.00166137 0.0504438 0.531313 42 5 5 5
0.00411804 0.0500141 0.526771 40 5 5 5
0.00656817 0.0498569 0.525099 38 5 5 5
0.0090398 0.0499042 0.525565 34 4 4 4
0.0116046 0.050319 0.530056 40 5 5 5
0.0141192 0.0504188 0.531042 45 6 6 6
0.0165369 0.0501782 0.528614 44 6 6 6
0.0189151 0.0499082 0.525673 43 5 5 5
0.0214242 0.0500276 0.52702 47 6 6 6
0.0239737 0.0501858 0.528573 50 7 7 7
0.0261506 0.0495915 0.52237 49 6 6 6
0.0282181 0.0489345 0.51549 46 6 6 6
0.030493 0.0486849 0.512885 44 6 6 6
0.0322609 0.0477424 0.502979 42 5 5 5
0.035011 0.0482964 0.50866 41 5 5 5
0.0374215 0.0483101 0.508961 34 4 4 4
0.0399901 0.0485257 0.511225 32 4 4 4
0.0415824 0.0476153 0.501612 30 3 3 3
0.0443534 0.0480612 0.506271 37 5 5 5
0.0470674 0.0484176 0.50997 40 5 5 5
0.0492302 0.048183 0.507446 41 5 5 5
0.0516272 0.0481864 0.507576 43 5 5 5
0.0535518 0.0477947 0.503381 44 6 6 6
0.0560892 0.0479296 0.504881 40 5 5 5
0.0585653 0.0480164 0.505693 42 5 5 5
0.0612842 0.0482831 0.50855 39 5 5 5
0.0636172 0.0482505 0.50809 48 6 6 6
0.0653566 0.0477695 0.503057 51 7 7 7
0.0666235 0.0469977 0.494946 55 7 7 7
0.0686213 0.046779 0.492498 53 7 7 7
0.0709842 0.046809 0.492815 48 6 6 6
0.0738944 0.0471847 0.496755 50 7 7 7
0.0775182 0.0479927 0.505082 59 8 8 8
0.0783032 0.0470403 0.495029 56 7 7 7
0.0804426 0.0469223 0.493742 58 8 8 8
0.0830708 0.047095 0.495514 60 8 8 8
0.0852348 0.0470006 0.49446 61 8 8 8
0.0850369 0.045642 0.480092 59 8 8 8
0.0875125 0.0457578 0.481237 61 8 8 8
0.0902071 0.0459702 0.483381 62 8 8 8
0.0930772 0.0462654 0.486378 65 9 9 9
0.095422 0.0463053 0.486532 57 8 8 8
0.098101 0.046493 0.488383 58 8 8 8
0.100425 0.0464993 0.488327 63 9 9 9
0.102476 0.0463875 0.487 56 7 7 7
0.104377 0.0462058 0.48494 63 9 9 9
0.107741 0.046671 0.489669 68 9 9 9
0.109678 0.0465165 0.487879 70 10 10 10
0.112139 0.0465786 0.488346 75 10 10 10
0.114062 0.0464181 0.486464 74 10 10 10
0.116289 0.0463899 0.485968 75 10 10 10
0.118848 0.0464917 0.486819 75 10 10 10
0.12193 0.0467889 0.489698 79 11 11 11
0.124242 0.0467842 0.489416 71 10 10 10
0.12702 0.0469505 0.490906 79 11 11 11
0.13167 0.0478051 0.499405 70 10 10 10
0.133516 0.0476134 0.497133 72 10 10 10
0.136735 0.0479136 0.499979 71 10 10 10
0.140571 0.0484094 0.504846 74 10 10 10
0.144839 0.0490557 0.511104 72 10 10 10
0.145638 0.048503 0.505021 82 11 11 11
0.1498 0.0490744 0.510625 82 11 11 11
0.149781 0.0482894 0.501934 84 12 12 12
0.153493 0.0487016 0.505859 93 13 13 13
0.159829 0.0499363 0.518124 93 13 13 13
0.163393 0.050258 0.521056 77 11 11 11
0.167344 0.0507082 0.525139 90 13 13 13
0.172281 0.0514171 0.532047 115 17 17 17
0.176791 0.0520003 0.537447 123 18 18 18
0.18471 0.0535501 0.552791 308 46 46 46
0.187243 0.053503 0.551799 587 89 89 89
0.190847 0.0537711 0.553869 695 106 106 106
0.191834 0.0533041 0.548352 806 123 123 123
0.194742 0.0533806 0.548413 935 142 142 142
0.197212 0.0533313 0.547163 1097 167 167 167
0.199905 0.0533425 0.546515 1006 153 153 153
0.200824 0.052881 0.541031 838 127 127 127
0.201481 0.0523675 0.535011 858 131 131 131
0.204129 0.0523777 0.534329 871 133 133 133
0.206636 0.0523469 0.533213 633 96 96 96
0.207641 0.0519625 0.528306 542 82 82 82
0 0 0 552 0 0 0
0.198343 0.0484179 0.490716 602 91 91 91
0.196134 0.0472978 0.478589 752 114 114 114
0.195961 0.0467088 0.47169 920 140 140 140
0.19806 0.0466494 0.470294 999 152 152 152
0.19871 0.0462534 0.465496 1110 169 169 169
0.200284 0.0460945 0.462924 1191 182 182 182
0.202547 0.0460805 0.461965 1180 180 180 180
0.204991 0.0461105 0.46143 1238 189 189 189
0.207979 0.0462573 0.462045 1304 199 199 199
0.211086 0.0464455 0.462896 1225 187 187 187
0.214729 0.0467341 0.464893 1158 177 177 177
0.217547 0.0468386 0.465035 1250 191 191 191
0.221225 0.0471237 0.466962 1313 200 200 200
0.223602 0.0471158 0.46612 1514 231 231 231
0.225633 0.0470543 0.464576 1496 228 228 228
0.228026 0.0470559 0.463812 1382 211 211 211
0.229815 0.0469526 0.461859 1256 192 192 192
0.231218 0.0467603 0.45919 1253 191 191 191
0.232606 0.0465556 0.456544 1132 173 173 173
0.235014 0.0465785 0.455991 1032 157 157 157
0.234707 0.0460577 0.450276 959 146 146 146
0.236598 0.0459762 0.448848 909 138 138 138
0.238747 0.0459541 0.448029 804 122 122 122
0.240895 0.0459189 0.447219 677 103 103 103
0.242398 0.0457701 0.445319 579 88 88 88
0.241947 0.0452478 0.439955 508 77 77 77
0.241065 0.0446777 0.433984 525 79 79 79
0.241091 0.0442589 0.429814 548 83 83 83
0.239287 0.0435366 0.422555 550 83 83 83
0.241779 0.0435934 0.42302 540 82 82 82
0.244293 0.043642 0.423566 446 67 67 67
0.24608 0.0435821 0.422927 440 66 66 66
-0.329126 0.0635728 0.586904 290 43 43 43
-0.327681 0.0638727 0.590083 286 43 43 43
-0.323505 0.0636511 0.588464 309 46 46 46
-0.320508 0.0636657 0.589026 330 50 50 50
-0.316913 0.0635506 0.588596 357 54 54 54
-0.313315 0.0634395 0.58822 396 60 60 60
-0.309643 0.0633176 0.587739 426 64 64 64
-0.306343 0.0632566 0.58801 481 73 73 73
-0.303089 0.0632113 0.588443 470 71 71 71
-0.300844 0.0633645 0.590914 478 72 72 72
-0.299498 0.063736 0.595216 449 68 68 68
-0.297555 0.0639696 0.59845 446 67 67 67
-0.295098 0.0640839 0.600743 443 67 67 67
-0.292469 0.0641875 0.602747 450 68 68 68
-0.290435 0.0644084 0.606049 454 69 69 69
-0.288722 0.0647261 0.610056 512 77 77 77
-0.284182 0.0643979 0.608168 605 92 92 92
-0.280913 0.0643484 0.608884 756 115 115 115
-0.277806 0.0643447 0.610031 901 137 137 137
-0.273581 0.064053 0.608616 992 151 151 151
-0.270167 0.0639725 0.608984 1020 155 155 155
-0.26768 0.0641162 0.611468 977 149 149 149
-0.265049 0.0642027 0.613604 863 131 131 131
-0.266638 0.0653511 0.625694 669 102 102 102
-0.264142 0.065508 0.628291 627 95 95 95
-0.260365 0.0653308 0.627864 752 114 114 114
-0.257564 0.0654132 0.629706 752 114 114 114
-0.257118 0.0661077 0.637433 640 97 97 97
-0.255553 0.0665011 0.642477 555 84 84 84
-0.249342 0.0657012 0.635761 704 107 107 107
-0.250724 0.0669067 0.648413 607 92 92 92
-0.24902 0.0673143 0.653356 601 91 91 91
-0.245296 0.0671671 0.652917 726 110 110 110
-0.242882 0.0673636 0.655986 654 99 99 99
-0.241246 0.0678051 0.661219 646 98 98 98
-0.238369 0.0679048 0.663125 631 96 96 96
-0.234882 0.0678241 0.663248 642 97 97 97
-0.232866 0.0681991 0.667597 602 91 91 91
-0.230511 0.0684549 0.670975 567 86 86 86
-0.227472 0.0685115 0.672383 586 89 89 89
-0.224484 0.0685845 0.673953 616 93 93 93
-0.221164 0.0685561 0.674505 605 92 92 92
-0.218875 0.0688722 0.678212 594 90 90 90
-0.216017 0.0689933 0.680195 561 85 85 85
-0.212853 0.06904 0.681209 526 80 80 80
-0.209512 0.0690064 0.681646 513 78 78 78
0 0 0 524 0 0 0
-0.187864 0.0638613 0.631982 549 83 83 83
-0.180767 0.0624621 0.618594 539 82 82 82
-0.177161 0.0622219 0.616847 535 81 81 81
-0.170732 0.0609841 0.604984 586 89 89 89
-0.165554 0.0601567 0.597158 611 93 93 93
-0.161681 0.0597811 0.59381 630 96 96 96
-0.156697 0.0589545 0.58614 639 97 97 97
-0.153725 0.0588863 0.585799 550 83 83 83
-0.15111 0.0589541 0.586809 256 38 38 38
-0.148533 0.0590374 0.587938 115 17 17 17
-0.145327 0.0588757 0.586644 95 13 13 13
-0.141956 0.0586303 0.584477 80 11 11 11
-0.138013 0.0581404 0.579869 76 11 11 11
-0.133252 0.05727 0.57144 76 11 11 11
-0.131993 0.057906 0.578042 83 12 12 12
-0.128595 0.0576092 0.575296 87 12 12 12
-0.124566 0.0570173 0.569601 85 12 12 12
-0.122633 0.0573703 0.573343 77 11 11 11
-0.119144 0.0569927 0.569766 80 11 11 11
-0.115303 0.0564329 0.564347 84 12 12 12
-0.112701 0.0564654 0.564831 77 11 11 11
-0.111321 0.0571246 0.571585 78 11 11 11
-0.109171 0.05741 0.574585 78 11 11 11
-0.106665 0.0575264 0.575892 76 11 11 11
-0.104493 0.0578209 0.578967 79 11 11 11
-0.100618 0.0571548 0.572582 76 11 11 11
-0.0981385 0.0572831 0.573956 65 9 9 9
-0.0951867 0.0571334 0.572544 65 9 9 9
-0.0923189 0.0570357 0.571635 64 9 9 9
-0.0896052 0.0570279 0.571628 65 9 9 9
-0.0871897 0.0572016 0.573403 65 9 9 9
-0.0841886 0.0569995 0.571412 66 9 9 9
-0.0816533 0.0571023 0.572655 60 8 8 8
-0.0783605 0.056668 0.568316 60 8 8 8
-0.0752231 0.05633 0.564925 68 9 9 9
-0.0724615 0.0562388 0.564167 78 11 11 11
-0.0695607 0.0560446 0.562201 87 12 12 12
-0.0667867 0.0559386 0.561102 77 11 11 11
-0.0639767 0.0557724 0.559555 64 9 9 9
-0.0623591 0.0567076 0.568884 37 5 5 5
-0.0594102 0.0564414 0.566318 42 5 5 5
-0.0571318 0.0568331 0.570176 53 7 7 7
-0.0538826 0.0562291 0.564185 52 7 7 7
-0.0511786 0.0561594 0.563555 48 6 6 6
-0.0483916 0.0560041 0.562048 54 7 7 7
-0.0451106 0.0552205 0.554063 53 7 7 7
-0.0425324 0.0552546 0.554439 44 6 6 6
-0.0401686 0.0555877 0.557798 44 6 6 6
-0.0376916 0.0557974 0.559918 42 5 5 5
-0.0349076 0.0555472 0.557391 40 5 5 5
-0.0321975 0.0554104 0.556017 38 5 5 5
-0.0295746 0.0553607 0.555655 43 5 5 5
-0.0267529 0.0549103 0.551099 48 6 6 6
-0.0240246 0.0546104 0.548039 44 6 6 6
-0.0217216 0.0553006 0.555067 44 6 6 6
-0.0191094 0.0553015 0.554991 36 4 4 4
0 0 0 35 0 0 0
-0.0135633 0.053921 0.541119 34 4 4 4
-0.0110046 0.0538299 0.540271 31 4 4 4
-0.00850994 0.0540906 0.542937 31 4 4 4
-0.00595865 0.0540772 0.54267 35 4 4 4
-0.00340762 0.0540066 0.541978 35 4 4 4
-0.000848156 0.0529934 0.531826 37 5 5 5
0.0016567 0.0527707 0.529574 39 5 5 5
0.00412365 0.0525401 0.527261 39 5 5 5
0.00656613 0.0522715 0.524695 32 4 4 4
0.00901789 0.0522105 0.52405 38 5 5 5
0.0115157 0.0523853 0.525756 39 5 5 5
0.0140662 0.0527401 0.529415 37 5 5 5
0.016499 0.0525733 0.527676 35 4 4 4
0.0189007 0.052348 0.525495 43 5 5 5
0.0213878 0.0523962 0.525883 48 6 6 6
0.0235648 0.0517723 0.51967 45 6 6 6
0.0257797 0.0513063 0.51504 39 5 5 5
0.0280672 0.0510942 0.512785 35 4 4 4
0.0298367 0.0500054 0.501889 29 3 3 3
0.0322076 0.0500321 0.502157 33 4 4 4
0.0342596 0.0495914 0.497735 37 5 5 5
0.0371195 0.0502999 0.504847 38 5 5 5
0.0390428 0.0497285 0.499081 42 5 5 5
0.0411221 0.0494106 0.496014 47 6 6 6
0.0438165 0.0498209 0.500087 41 5 5 5
0.0463773 0.0500602 0.502444 40 5 5 5
0.0491309 0.0504731 0.506526 47 6 6 6
0.0500067 0.0489911 0.49173 47 6 6 6
0.0524721 0.0491412 0.493146 42 5 5 5
0.055182 0.0494814 0.496622 43 5 5 5
0.0583779 0.0502383 0.50411 40 5 5 5
0.0608257 0.0503009 0.504786 39 5 5 5
0.0631247 0.050238 0.504172 41 5 5 5
0.0634241 0.0486589 0.488189 45 6 6 6
0.0664816 0.0492157 0.493791 41 5 5 5
0.0688113 0.049223 0.493851 43 5 5 5
0.0702672 0.0486384 0.487835 53 7 7 7
0.0727082 0.0487348 0.488772 56 7 7 7
0.0751686 0.048836 0.489758 49 6 6 6
0.0772712 0.0487039 0.488388 55 7 7 7
0.0802682 0.0491344 0.492645 55 7 7 7
0.0827888 0.0492557 0.4938 55 7 7 7
0.084268 0.0487659 0.488815 59 8 8 8
0.085503 0.0481631 0.482683 56 7 7 7
0.0873246 0.04792 0.480158 58 8 8 8
0.0901257 0.0482036 0.482895 52 7 7 7
0.0929469 0.0484901 0.485644 55 7 7 7
0.0957949 0.048775 0.488376 56 7 7 7
0.0978311 0.048649 0.486978 60 8 8 8
0.100158 0.048661 0.486945 60 8 8 8
0.102105 0.0484983 0.485165 64 9 9 9
0.104375 0.0484845 0.48486 63 9 9 9
0.107896 0.049045 0.490296 66 9 9 9
0.109526 0.0487462 0.48711 70 10 10 10
0.111391 0.0485544 0.48501 79 11 11 11
0.113758 0.0485833 0.485084 81 11 11 11
0.116037 0.0485795 0.484832 87 12 12 12
0.118973 0.0488442 0.487242 90 13 13 13
0.12196 0.0491122 0.489668 103 15 15 15
0.124434 0.0491722 0.490017 79 11 11 11
0.127323 0.0493957 0.491978 82 11 11 11
0.130963 0.0498908 0.496625 76 11 11 11
0.132138 0.0494598 0.491896 68 9 9 9
0.135948 0.0499972 0.496939 76 11 11 11
0.14068 0.0508536 0.505128 78 11 11 11
0.143228 0.0508988 0.505252 70 10 10 10
0.145223 0.0507535 0.50347 85 12 12 12
0.146536 0.0503876 0.499328 90 13 13 13
0.14947 0.0505712 0.500777 76 11 11 11
0.152819 0.050886 0.50352 91 13 13 13
0.157388 0.0516006 0.510033 105 15 15 15
0.161927 0.0522726 0.516256 98 14 14 14
0.167011 0.0531077 0.523911 98 14 14 14
0.170672 0.0534604 0.526928 101 14 14 14
0.17652 0.0544883 0.536416 103 15 15 15
0.183568 0.055857 0.549213 201 30 30 30
0.186875 0.056041 0.550517 492 74 74 74
0.18912 0.0559228 0.548659 687 104 104 104
0.191444 0.0558355 0.547071 863 131 131 131
0.194061 0.0558295 0.546279 993 151 151 151
0.19705 0.0559286 0.546515 1068 163 163 163
0.19852 0.055599 0.542529 1030 157 157 157
0.201471 0.0556821 0.542573 737 112 112 112
0.200507 0.0546995 0.532209 602 91 91 91
0.198254 0.0533945 0.518741 572 87 87 87
0 0 0 573 0 0 0
0.191301 0.0502292 0.486506 701 106 106 106
0.192312 0.0498888 0.482284 768 117 117 117
0.192868 0.0494197 0.476972 932 142 142 142
0.192794 0.0488024 0.470245 1070 163 163 163
0.194381 0.0486146 0.467653 1102 168 168 168
0.196627 0.0486095 0.466658 1144 174 174 174
0.198446 0.0484846 0.464647 1246 190 190 190
0.200204 0.0483512 0.462558 1358 207 207 207
0.202573 0.0483781 0.461826 1291 197 197 197
0.205177 0.0484445 0.461616 1270 194 194 194
0.206964 0.0483221 0.459593 1423 217 217 217
0.211466 0.0488287 0.463529 1284 196 196 196
0.213995 0.048877 0.463104 1276 195 195 195
0.218083 0.049276 0.465977 1320 201 201 201
0.221831 0.0495905 0.468037 1408 215 215 215
0.223509 0.0494434 0.465721 1527 233 233 233
0.225552 0.0493702 0.464254 1463 223 223 223
0.227371 0.0492492 0.462324 1400 214 214 214
0.229202 0.0491519 0.46047 1269 194 194 194
0.230582 0.0489479 0.457769 1220 186 186 186
0.232938 0.0489436 0.457069 1074 164 164 164
0.23546 0.0489919 0.456727 990 151 151 151
0.235177 0.0484514 0.451049 893 136 136 136
0.236357 0.0482098 0.448306 802 122 122 122
0.238421 0.0481722 0.447318 702 107 107 107
0.240461 0.048117 0.446326 546 83 83 83
0.238504 0.0472666 0.438107 540 82 82 82
0.236575 0.0464542 0.430126 580 88 88 88
0.237751 0.0462536 0.427973 593 90 90 90
0.238407 0.0459485 0.424994 602 91 91 91
0.239223 0.0456839 0.42242 555 84 84 84
0.24118 0.0456467 0.421949 531 80 80 80
0.243471 0.0456648 0.422157 506 77 77 77
0.245436 0.0456256 0.421834 485 73 73 73
-0.329025 0.0665475 0.586675 301 45 45 45
-0.323844 0.0661148 0.583128 324 49 49 49
-0.320927 0.0661261 0.583695 326 49 49 49
-0.318886 0.0663306 0.585968 339 51 51 51
-0.316725 0.0665204 0.588133 377 57 57 57
-0.312199 0.0662031 0.585992 402 61 61 61
-0.309354 0.0662422 0.587022 409 62 62 62
-0.306509 0.0662734 0.588161 404 61 61 61
-0.304027 0.066392 0.590076 376 57 57 57
-0.301202 0.0664408 0.591392 377 57 57 57
-0.298674 0.0665644 0.593354 381 57 57 57
-0.295653 0.0665628 0.594402 397 60 60 60
-0.292733 0.0665922 0.595706 424 64 64 64
-0.290027 0.0666504 0.59745 433 65 65 65
-0.289255 0.0671885 0.603321 443 67 67 67
-0.28545 0.0670046 0.602878 444 67 67 67
-0.28336 0.0672331 0.606144 441 67 67 67
-0.280901 0.0673726 0.608595 460 69 69 69
-0.278691 0.0675852 0.611689 526 80 80 80
-0.275327 0.0675141 0.612218 640 97 97 97
-0.271736 0.0673896 0.612238 843 128 128 128
-0.267075 0.0669934 0.609781 1061 162 162 162
-0.264445 0.0670876 0.611927 1048 160 160 160
-0.262128 0.0672797 0.614783 972 148 148 148
-0.25926 0.0673379 0.6164 867 132 132 132
-0.259796 0.0682656 0.62616 706 107 107 107
-0.259513 0.069024 0.634184 632 96 96 96
-0.255819 0.0688768 0.633897 704 107 107 107
-0.252296 0.0687566 0.634026 701 106 106 106
-0.251426 0.0693806 0.640789 598 91 91 91
-0.247702 0.0692226 0.640336 729 111 111 111
-0.245192 0.0694034 0.642995 697 106 106 106
-0.24591 0.0705141 0.654265 589 89 89 89
-0.241587 0.0701677 0.652225 700 106 106 106
-0.239216 0.0704081 0.655395 678 103 103 103
-0.237414 0.0708239 0.660205 660 100 100 100
-0.234317 0.0708526 0.661391 677 103 103 103
-0.23109 0.0708696 0.662245 651 99 99 99
-0.22982 0.0714664 0.668705 610 92 92 92
-0.226751 0.0715119 0.66999 639 97 97 97
-0.223598 0.0715316 0.671034 702 107 107 107
-0.220873 0.0717114 0.673357 672 102 102 102
-0.218135 0.0718696 0.675661 662 100 100 100
-0.215413 0.0720373 0.678036 641 97 97 97
-0.212474 0.0721573 0.67976 599 91 91 91
-0.209076 0.0720998 0.679972 567 86 86 86
-0.202023 0.0707809 0.668072 528 80 80 80
-0.188181 0.0670007 0.632901 533 81 81 81
-0.181988 0.0658429 0.622613 550 83 83 83
-0.176945 0.0650887 0.615934 541 82 82 82
-0.170188 0.0636667 0.602902 586 89 89 89
-0.165828 0.0630992 0.597929 635 96 96 96
-0.160859 0.0622632 0.590581 568 86 86 86
-0.157288 0.0619738 0.58821 552 84 84 84
-0.153899 0.0617382 0.586327 514 78 78 78
-0.151435 0.0618704 0.587937 233 35 35 35
-0.148747 0.0619125 0.588672 112 16 16 16
-0.145851 0.0618748 0.58863 93 13 13 13
-0.142458 0.0616115 0.58642 88 12 12 12
-0.137818 0.0607942 0.578932 78 11 11 11
-0.133345 0.060009 0.571725 80 11 11 11
-0.132702 0.0609572 0.581032 81 11 11 11
-0.127289 0.0597071 0.569365 81 11 11 11
-0.125014 0.0599135 0.571565 85 12 12 12
-0.122299 0.0599032 0.571681 80 11 11 11
-0.119408 0.0598026 0.570934 78 11 11 11
-0.115865 0.0593707 0.567004 82 11 11 11
-0.113095 0.0593219 0.566714 86 12 12 12
-0.111132 0.0597033 0.570534 80 11 11 11
-0.109247 0.0601444 0.574909 81 11 11 11
-0.106926 0.0603698 0.577223 97 14 14 14
-0.104062 0.0602806 0.576512 91 13 13 13
-0.099917 0.0594331 0.568528 80 11 11 11
-0.0974587 0.0595679 0.569922 66 9 9 9
-0.0952676 0.0598764 0.572978 71 10 10 10
-0.0928906 0.060092 0.575128 67 9 9 9
-0.0894916 0.0596256 0.570733 65 9 9 9
-0.0863537 0.0593197 0.567873 69 9 9 9
-0.0839925 0.0595426 0.570056 64 9 9 9
-0.0811699 0.0594399 0.569124 60 8 8 8
-0.0784565 0.0594239 0.569003 65 9 9 9
-0.0753736 0.0590833 0.565924 79 11 11 11
-0.0725989 0.0589986 0.565111 84 12 12 12
-0.0698221 0.0589031 0.564193 90 13 13 13
-0.0670621 0.0587947 0.563301 87 12 12 12
-0.0645029 0.0588924 0.5642 52 7 7 7
-0.0623481 0.0593466 0.568681 36 4 4 4
-0.0599815 0.0596641 0.571668 42 5 5 5
-0.0564833 0.0588121 0.563599 50 7 7 7
-0.0537355 0.058712 0.562567 59 8 8 8
-0.0507575 0.058316 0.558849 56 7 7 7
-0.047557 0.0576263 0.552298 55 7 7 7
-0.0446739 0.057257 0.548653 45 6 6 6
-0.0421218 0.0572944 0.549053 41 5 5 5
-0.04012 0.058132 0.557104 41 5 5 5
-0.037795 0.058583 0.561434 37 5 5 5
-0.0349996 0.0583154 0.558876 46 6 6 6
-0.032244 0.0580734 0.556547 46 6 6 6
-0.0295144 0.0578701 0.554589 49 6 6 6
-0.0266053 0.0571846 0.548137 45 6 6 6
-0.0239754 0.0570739 0.547033 42 5 5 5
-0.0216925 0.0578126 0.554052 44 6 6 6
-0.0191633 0.0580364 0.556299 37 5 5 5
-0.0163692 0.0574189 0.550303 39 5 5 5
-0.0133373 0.0555558 0.532512 31 4 4 4
-0.0110552 0.0566768 0.543306 34 4 4 4
-0.00850934 0.0567289 0.543697 32 4 4 4
-0.00597705 0.0567653 0.544079 35 4 4 4
-0.00336032 0.0557321 0.534192 31 4 4 4
-0.000849299 0.0555311 0.532282 34 4 4 4
0.0016356 0.0550597 0.527764 33 4 4 4
0.00409818 0.0548575 0.525809 37 5 5 5
0.00649043 0.0542198 0.519681 39 5 5 5
0.00886339 0.0537976 0.515739 36 4 4 4
0.0112521 0.0536406 0.514186 35 4 4 4
0.0136126 0.0534285 0.512106 35 4 4 4
0.0161954 0.0540057 0.517711 35 4 4 4
0.0186725 0.0541375 0.518895 40 5 5 5
0.0208934 0.0536064 0.513877 32 4 4 4
0.0230443 0.0529847 0.507957 31 4 4 4
0.0252159 0.0525679 0.503854 32 4 4 4
0.0273733 0.0521506 0.499878 34 4 4 4
0.0299256 0.0525168 0.503397 40 5 5 5
0.0314251 0.0511148 0.489967 42 5 5 5
0.0339575 0.0514673 0.493339 46 6 6 6
0.0359223 0.0509675 0.488528 46 6 6 6
0.0385289 0.0514022 0.492673 54 7 7 7
0.0409544 0.0515238 0.493947 51 7 7 7
0.0434172 0.0517068 0.495649 47 6 6 6
0.0454619 0.0513799 0.492464 48 6 6 6
0.0471336 0.0506832 0.485849 50 7 7 7
0.0491156 0.0503814 0.48289 48 6 6 6
0.0516649 0.0506609 0.485617 47 6 6 6
0.0546543 0.0513286 0.491919 47 6 6 6
0.0575272 0.0518343 0.496799 45 6 6 6
0.0589874 0.0510771 0.489414 47 6 6 6
0.0611754 0.0509795 0.488497 47 6 6 6
0.0628612 0.0504956 0.483862 47 6 6 6
0.0650993 0.0504598 0.483522 36 4 4 4
0.0678481 0.0508333 0.486929 42 5 5 5
0.0678903 0.0492048 0.471302 49 6 6 6
0.0712419 0.05 0.478892 47 6 6 6
0.074123 0.0504246 0.482916 46 6 6 6
0.0767908 0.0506814 0.485317 48 6 6 6
0.0796455 0.0510509 0.488782 47 6 6 6
0.0818954 0.0510213 0.488425 57 8 8 8
0.0842443 0.0510516 0.488626 57 8 8 8
0.085921 0.0506822 0.484987 59 8 8 8
0.088225 0.0506995 0.485048 59 8 8 8
0.0903189 0.0505883 0.483865 63 9 9 9
0.0922897 0.050422 0.482141 59 8 8 8
0.0949043 0.0506056 0.483762 62 8 8 8
0.097552 0.0508042 0.485512 62 8 8 8
0.0992529 0.0505029 0.482483 66 9 9 9
0.101347 0.0504015 0.481479 63 9 9 9
0.10395 0.0505585 0.482798 71 10 10 10
0.105873 0.0503907 0.481015 69 9 9 9
0.109201 0.05089 0.485585 71 10 10 10
0.111061 0.0506914 0.483478 85 12 12 12
0.112984 0.0505273 0.481687 82 11 11 11
0.115636 0.0506946 0.483054 96 14 14 14
0.118679 0.0510224 0.485933 99 14 14 14
0.121457 0.0512183 0.487538 100 14 14 14
0.124394 0.051478 0.489746 91 13 13 13
0.127665 0.051863 0.493129 78 11 11 11
0.129812 0.0517907 0.49216 79 11 11 11
0.132026 0.0517398 0.491364 76 11 11 11
0.1348 0.0519053 0.492623 77 11 11 11
0.139201 0.0526859 0.499696 91 13 13 13
0.142455 0.0530223 0.502399 75 10 10 10
0.144747 0.0529847 0.501689 72 10 10 10
0.146399 0.0527111 0.498731 77 11 11 11
0.149265 0.0528815 0.499958 81 11 11 11
0.153414 0.0535029 0.505289 93 13 13 13
0.157976 0.0542359 0.511799 94 13 13 13
0.162509 0.05493 0.517914 91 13 13 13
0.166262 0.0553648 0.521416 99 14 14 14
0.170143 0.0558057 0.525091 99 14 14 14
0.171149 0.0553258 0.519945 102 15 15 15
0.176838 0.056346 0.528889 138 20 20 20
0.186125 0.0584492 0.548094 338 51 51 51
0.188727 0.0584454 0.547337 616 93 93 93
0.19118 0.0583904 0.546101 701 106 106 106
0.193728 0.058365 0.545125 768 117 117 117
0.195751 0.0581839 0.542678 661 100 100 100
0.195144 0.0572355 0.533089 624 95 95 95
0 0 0 603 0 0 0
0.185402 0.0529698 0.491918 730 111 111 111
0.186982 0.0527353 0.489006 765 116 116 116
0.186483 0.0519318 0.480816 891 136 136 136
0.188561 0.0518522 0.479325 967 147 147 147
0.190961 0.051862 0.47866 1069 163 163 163
0.191251 0.0513245 0.472777 1125 171 171 171
0.192399 0.0510078 0.469086 1231 188 188 188
0.194263 0.0508858 0.467174 1300 198 198 198
0.195858 0.0506967 0.464638 1448 221 221 221
0.197478 0.0505334 0.462185 1452 222 222 222
0.199602 0.0504859 0.460921 1642 251 251 251
0.202497 0.0506358 0.461456 1504 230 230 230
0.20528 0.0507504 0.461635 1427 218 218 218
0.208959 0.0510851 0.463823 1295 198 198 198
0.21144 0.051138 0.463272 1352 206 206 206
0.21506 0.0514504 0.465207 1301 198 198 198
0.218555 0.0517102 0.466783 1385 211 211 211
0.221295 0.051803 0.466686 1553 237 237 237
0.223382 0.0517495 0.465286 1527 233 233 233
0.225077 0.0515909 0.463055 1417 216 216 216
0.226908 0.0514697 0.461178 1376 210 210 210
0.22884 0.0513799 0.459569 1274 194 194 194
0.230702 0.0512759 0.457835 1150 175 175 175
0.232803 0.0512328 0.456646 1006 153 153 153
0.234535 0.0511006 0.454789 862 131 131 131
0.235426 0.050792 0.451382 750 114 114 114
0.23633 0.0504824 0.448126 659 100 100 100
0.23414 0.0495295 0.439157 608 92 92 92
0.233762 0.0489832 0.433821 623 94 94 94
0.234665 0.0487149 0.43097 576 87 87 87
0.234662 0.0482583 0.426591 630 96 96 96
0.235564 0.0479875 0.424003 672 102 102 102
0.237265 0.0478873 0.42294 682 104 104 104
