ply
format ascii 1.0
comment Generated by royaleviewer 4.24.0.1201
element vertex 1162
property float x
property float y
property float z
property float amplitude
property uchar red
property uchar green
property uchar blue
element face 0
property list uchar int vertex_index
end_header
0.230663 0.0461565 0.42814 635 89 89 89
0.231887 0.0459551 0.42595 668 94 94 94
0.23155 0.0454674 0.42099 698 98 98 98
0.233509 0.0454283 0.420337 704 99 99 99
0.234934 0.0452793 0.418804 706 99 99 99
0.235558 0.0449839 0.415948 655 92 92 92
0.23732 0.0449163 0.415197 620 87 87 87
0.239427 0.0449064 0.415145 552 77 77 77
0.239691 0.0445577 0.411962 533 74 74 74
-0.320854 0.064895 0.572106 311 43 43 43
-0.316084 0.0645306 0.569155 319 44 44 44
-0.312264 0.0643411 0.567939 352 49 49 49
-0.309926 0.0644668 0.569503 347 48 48 48
-0.305785 0.0642227 0.567818 386 54 54 54
-0.302394 0.0641238 0.567587 424 59 59 59
-0.298182 0.0638498 0.565821 461 64 64 64
-0.295358 0.0638623 0.566763 461 64 64 64
-0.292723 0.0639234 0.568136 468 65 65 65
-0.289928 0.0639538 0.569255 469 65 65 65
-0.287216 0.0640109 0.570592 486 68 68 68
-0.284501 0.0640518 0.57198 493 69 69 69
-0.280957 0.0639133 0.571742 525 73 73 73
-0.277887 0.0638606 0.572443 575 80 80 80
-0.274411 0.0637404 0.572359 607 85 85 85
-0.271274 0.0636771 0.572939 628 88 88 88
-0.268769 0.063771 0.574932 673 94 94 94
-0.262631 0.0629907 0.569011 741 104 104 104
-0.259095 0.0628329 0.568678 822 115 115 115
-0.256741 0.0629566 0.570891 849 119 119 119
-0.255737 0.0634218 0.576191 834 117 117 117
-0.253068 0.0634799 0.5778 828 116 116 116
-0.250017 0.0634272 0.578539 859 121 121 121
-0.248857 0.0638733 0.583656 834 117 117 117
-0.246032 0.0639022 0.584949 816 115 115 115
-0.245048 0.0643902 0.590613 757 106 106 106
-0.244106 0.0649263 0.596535 743 104 104 104
-0.243223 0.0654853 0.602684 667 93 93 93
-0.241538 0.0658249 0.606992 610 85 85 85
-0.240484 0.0663613 0.612903 627 88 88 88
-0.23686 0.0661927 0.612308 754 106 106 106
-0.236099 0.0668296 0.619149 775 109 109 109
-0.235266 0.0674621 0.625948 725 102 102 102
-0.233584 0.0678432 0.630618 743 104 104 104
-0.232295 0.0683708 0.636431 826 116 116 116
-0.229404 0.0684345 0.637932 865 121 121 121
-0.229969 0.0695377 0.649117 740 104 104 104
-0.22602 0.0693149 0.647718 850 119 119 119
-0.225366 0.0700814 0.655745 749 105 105 105
-0.223375 0.0704473 0.660016 682 96 96 96
-0.220976 0.0706925 0.663163 682 96 96 96
-0.217937 0.0707583 0.664408 683 96 96 96
-0.215439 0.0709812 0.667309 685 96 96 96
-0.212498 0.0710623 0.668859 596 83 83 83
-0.209323 0.0710872 0.669679 540 75 75 75
-0.206873 0.0713399 0.672806 546 76 76 76
-0.203877 0.0714303 0.674202 545 76 76 76
-0.20061 0.071426 0.674704 645 90 90 90
-0.196808 0.0712047 0.673314 688 96 96 96
-0.193339 0.0711193 0.673002 680 95 95 95
-0.189347 0.070834 0.670775 660 92 92 92
0 0 0 457 0 0 0
-0.166517 0.0644531 0.611352 456 64 64 64
-0.160557 0.0632617 0.600433 487 68 68 68
-0.15626 0.0626853 0.595321 501 70 70 70
-0.15241 0.0622687 0.591721 313 43 43 43
-0.150241 0.0625347 0.594588 117 16 16 16
-0.146767 0.0622636 0.592327 80 10 10 10
-0.143224 0.0619429 0.589574 84 11 11 11
-0.139507 0.0615393 0.586027 72 9 9 9
-0.136418 0.0613917 0.584898 75 10 10 10
-0.133806 0.0614647 0.585869 71 9 9 9
-0.128669 0.0603544 0.575538 67 8 8 8
-0.125646 0.060216 0.574452 65 8 8 8
-0.122402 0.0599536 0.572162 59 7 7 7
-0.119758 0.0599779 0.572608 74 9 9 9
-0.117386 0.0601502 0.574448 65 8 8 8
-0.115005 0.0603242 0.576289 70 9 9 9
-0.112485 0.06043 0.577478 68 9 9 9
-0.109528 0.0602992 0.576388 66 8 8 8
-0.105704 0.0596802 0.570629 76 10 10 10
-0.103042 0.0596898 0.570861 76 10 10 10
-0.100468 0.0597607 0.571662 77 10 10 10
-0.0979237 0.0598522 0.572642 84 11 11 11
-0.0953294 0.0599152 0.57335 88 11 11 11
-0.0924017 0.0597757 0.572101 87 11 11 11
-0.0890571 0.0593361 0.567962 95 12 12 12
-0.086681 0.0595446 0.570025 93 12 12 12
-0.0840209 0.0595627 0.570249 100 13 13 13
-0.0815919 0.0597489 0.572083 97 13 13 13
-0.0791304 0.0599343 0.573891 85 11 11 11
-0.0758515 0.0594579 0.569512 77 10 10 10
-0.0733973 0.0596475 0.571325 68 9 9 9
-0.0709785 0.0598787 0.573538 68 9 9 9
-0.0676317 0.0592941 0.568085 93 12 12 12
-0.0647027 0.0590749 0.565948 98 13 13 13
-0.0625558 0.0595442 0.570575 91 12 12 12
-0.0601979 0.0598793 0.57373 51 6 6 6
-0.0575339 0.0599061 0.574082 46 5 5 5
-0.0543603 0.0593946 0.569108 59 7 7 7
-0.0515865 0.0592684 0.567976 62 8 8 8
-0.0488083 0.0591425 0.566829 69 9 9 9
-0.0459522 0.0588953 0.564352 62 8 8 8
-0.04313 0.0586658 0.562195 57 7 7 7
-0.0404084 0.0585498 0.561108 53 6 6 6
-0.0377486 0.0585112 0.560745 44 5 5 5
-0.0346892 0.0577983 0.553921 33 4 4 4
-0.0325017 0.0585376 0.560996 41 5 5 5
-0.0296456 0.0581274 0.557054 62 8 8 8
-0.0269251 0.0578719 0.554725 58 7 7 7
-0.0238778 0.0568415 0.544805 44 5 5 5
-0.0207874 0.0554006 0.530936 39 4 4 4
-0.0177227 0.0536734 0.514478 52 6 6 6
-0.0151261 0.0530584 0.508511 53 6 6 6
-0.0124117 0.0517003 0.495556 51 6 6 6
-0.00996078 0.0510659 0.489521 58 7 7 7
-0.00762005 0.0508003 0.486876 76 10 10 10
-0.00533362 0.0506545 0.485509 84 11 11 11
-0.00300257 0.0497987 0.47732 90 12 12 12
-0.000756572 0.0494682 0.474167 104 14 14 14
0.00146061 0.049169 0.471299 124 17 17 17
0.00365 0.0488582 0.468306 129 17 17 17
0.00584303 0.0488115 0.467844 141 19 19 19
0.00804239 0.0488145 0.467967 143 19 19 19
0.0102365 0.0487992 0.467777 144 19 19 19
0.012426 0.0487714 0.467467 134 18 18 18
0.0146009 0.0486886 0.46674 140 19 19 19
0.016764 0.0486041 0.465858 150 20 20 20
0.0188191 0.0482843 0.462859 135 18 18 18
0.021011 0.0483095 0.463137 135 18 18 18
0.0233048 0.0485838 0.465666 125 17 17 17
0.0256032 0.0487783 0.467553 127 17 17 17
0.0280064 0.0491488 0.471114 114 15 15 15
0.0302061 0.0491319 0.47096 112 15 15 15
0.0324171 0.0491326 0.47096 97 13 13 13
0.034671 0.0491922 0.471512 91 12 12 12
0.0370768 0.0494649 0.474104 91 12 12 12
0.0389905 0.049053 0.47026 78 10 10 10
0.0410561 0.0488948 0.468695 80 10 10 10
0.0432357 0.0488638 0.468348 75 10 10 10
0.0455062 0.0489333 0.469074 70 9 9 9
0.0473168 0.0485363 0.465205 67 8 8 8
0.0499914 0.04902 0.469887 79 10 10 10
0.0525622 0.0493638 0.473089 69 9 9 9
0.055088 0.0496365 0.475735 71 9 9 9
0.0568353 0.0492136 0.471558 67 8 8 8
0.0586193 0.0488494 0.468086 88 11 11 11
0.0607084 0.0487663 0.467292 86 11 11 11
0.0630793 0.0488941 0.468519 77 10 10 10
0.0651357 0.0488011 0.467462 75 10 10 10
0.0676122 0.0490032 0.469372 75 10 10 10
0.0707129 0.0496288 0.475337 82 11 11 11
0.0728448 0.0495551 0.474588 73 9 9 9
0.0749533 0.0494686 0.473704 66 8 8 8
0.0770363 0.0493785 0.47277 70 9 9 9
0.0791725 0.0493249 0.472185 75 10 10 10
0.0807532 0.0489361 0.468378 75 10 10 10
0.0819245 0.0483248 0.462428 72 9 9 9
0.0834272 0.0479424 0.458671 71 9 9 9
0.086656 0.0485366 0.464242 74 9 9 9
0.0882004 0.0481878 0.460778 68 9 9 9
0.0909778 0.0485118 0.463748 63 8 8 8
0.0944623 0.0491951 0.470134 70 9 9 9
0.0971739 0.049445 0.472376 71 9 9 9
0.0996539 0.0495598 0.473437 70 9 9 9
0.101777 0.0495016 0.472706 72 9 9 9
0.105295 0.0501154 0.478388 68 9 9 9
0.107028 0.0498773 0.475922 75 10 10 10
0.109647 0.050046 0.477323 75 10 10 10
0.111765 0.0499819 0.476487 75 10 10 10
0.113593 0.049799 0.47452 81 10 10 10
0.115939 0.0498444 0.474714 81 10 10 10
0.119069 0.0502116 0.477954 83 11 11 11
0.121875 0.0504356 0.479829 94 12 12 12
0.125261 0.0508865 0.483843 92 12 12 12
0.128891 0.0514229 0.488665 88 11 11 11
0.13142 0.0515024 0.489109 102 13 13 13
0.132728 0.0511075 0.485051 116 15 15 15
0.136293 0.0515849 0.489254 98 13 13 13
0.138965 0.0517233 0.49009 92 12 12 12
0.141529 0.0518068 0.490536 93 12 12 12
0.143486 0.0516626 0.48881 85 11 11 11
0.146489 0.0518978 0.490657 85 11 11 11
0.151063 0.0526829 0.497545 86 11 11 11
0.15389 0.0528332 0.498562 97 13 13 13
0.1556 0.0525947 0.495895 116 15 15 15
0.158637 0.0528256 0.497503 87 11 11 11
0.16259 0.0533282 0.50178 98 13 13 13
0.165877 0.0536216 0.503929 103 14 14 14
0.1695 0.0540077 0.506941 109 14 14 14
0.1739 0.0546102 0.512095 107 14 14 14
0.175806 0.0544441 0.509865 104 14 14 14
0.178324 0.0544638 0.509378 156 21 21 21
0.176441 0.053157 0.496482 470 66 66 66
0.177747 0.0528324 0.492765 807 113 113 113
0.178741 0.0524245 0.48828 1125 158 158 158
0.180761 0.0523193 0.486589 1216 171 171 171
0.183531 0.0524352 0.486953 1149 162 162 162
0.185371 0.052281 0.484793 1242 175 175 175
0.187095 0.0521022 0.482393 1246 175 175 175
0.189922 0.0522265 0.482785 1207 170 170 170
0.192097 0.0521704 0.481507 1277 180 180 180
0.194103 0.0520899 0.479827 1267 178 178 178
0.196076 0.0519825 0.478049 1295 182 182 182
0.195659 0.0512516 0.470533 1428 201 201 201
0.197095 0.0510168 0.467571 1373 193 193 193
0.198376 0.0507632 0.464287 1357 191 191 191
0.198466 0.0501986 0.458298 1579 223 223 223
0.201521 0.0503917 0.459232 1525 215 215 215
0.205835 0.0508878 0.462884 1431 202 202 202
0.209037 0.0511041 0.463995 1315 185 185 185
0.212152 0.0513102 0.464832 1312 185 185 185
0.215933 0.0516591 0.467094 1428 201 201 201
0 0 0 1707 0 0 0
0 0 0 1697 0 0 0
0.222065 0.0514444 0.462543 1628 230 230 230
0.224277 0.0514077 0.461411 1366 192 192 192
0.226507 0.0513787 0.460362 1058 149 149 149
0.226657 0.0508897 0.455185 885 124 124 124
0.221317 0.0491898 0.439209 909 128 128 128
0.221123 0.0486623 0.433735 912 128 128 128
0.224138 0.0488353 0.434628 829 116 116 116
0.226615 0.0488911 0.434489 734 103 103 103
0.22746 0.0485876 0.431307 748 105 105 105
0.22692 0.0480024 0.425616 720 101 101 101
0.229204 0.0480281 0.425362 746 105 105 105
0.230492 0.0478486 0.423305 774 109 109 109
0.230748 0.0474534 0.419475 798 112 112 112
0.232144 0.0472907 0.417847 797 112 112 112
0.232967 0.0470197 0.415278 822 115 115 115
0.234995 0.046999 0.414919 705 99 99 99
0.237161 0.0470013 0.414922 631 88 88 88
0.238793 0.0469026 0.414048 587 82 82 82
0.2399 0.0467075 0.412336 565 79 79 79
-0.315127 0.0666266 0.561849 314 43 43 43
-0.313204 0.0668323 0.563869 328 45 45 45
-0.310381 0.0668589 0.564417 359 50 50 50
-0.304773 0.0662711 0.55992 377 52 52 52
-0.302357 0.0663753 0.561305 399 55 55 55
-0.299889 0.0664659 0.56274 427 59 59 59
-0.297252 0.0665233 0.563913 480 67 67 67
-0.292831 0.0661859 0.561735 482 67 67 67
-0.288785 0.0659195 0.560316 525 73 73 73
-0.287674 0.0663279 0.564633 521 73 73 73
-0.28647 0.0667068 0.568894 566 79 79 79
-0.278667 0.0655688 0.560022 594 83 83 83
-0.275908 0.06559 0.561199 675 95 95 95
-0.274343 0.065907 0.564912 682 96 96 96
-0.269705 0.0654647 0.562277 761 107 107 107
-0.266783 0.0654623 0.563229 875 123 123 123
-0.264576 0.065617 0.565678 888 125 125 125
-0.261728 0.0656139 0.566789 976 137 137 137
-0.259671 0.0658157 0.569635 966 136 136 136
-0.256272 0.0656826 0.569582 1005 141 141 141
-0.254906 0.0660731 0.574053 958 135 135 135
-0.252432 0.0661624 0.576065 921 129 129 129
-0.249688 0.0662013 0.577471 867 122 122 122
-0.247298 0.0663407 0.579736 841 118 118 118
-0.245989 0.0667517 0.584535 799 112 112 112
-0.244215 0.0670698 0.588341 719 101 101 101
-0.241885 0.0672348 0.590792 655 92 92 92
-0.241266 0.0678907 0.597568 567 79 79 79
-0.238201 0.0678402 0.59827 558 78 78 78
-0.237822 0.0685882 0.605849 519 72 72 72
-0.236055 0.068944 0.609959 523 73 73 73
-0.236244 0.0698867 0.619258 537 75 75 75
-0.234594 0.070282 0.623886 589 82 82 82
-0.232571 0.0705949 0.627611 662 93 93 93
-0.232002 0.0713629 0.635354 688 96 96 96
-0.228992 0.0713899 0.63651 827 116 116 116
-0.227109 0.071767 0.640771 890 125 125 125
-0.226033 0.07244 0.647477 785 110 110 110
-0.222959 0.0724537 0.648464 871 122 122 122
-0.222641 0.0733758 0.657591 708 99 99 99
-0.219935 0.0735323 0.659827 676 95 95 95
-0.217565 0.073821 0.663062 624 87 87 87
-0.211801 0.0729271 0.655836 574 80 80 80
-0.207636 0.0725853 0.653352 573 80 80 80
-0.204532 0.0725872 0.654148 557 78 78 78
-0.20138 0.0725928 0.654764 513 72 72 72
-0.198751 0.072767 0.657073 466 65 65 65
-0.196272 0.0730236 0.659917 433 60 60 60
-0.19434 0.0734858 0.664624 434 60 60 60
-0.191958 0.0737758 0.667928 466 65 65 65
-0.189407 0.0740303 0.670721 578 81 81 81
0 0 0 455 0 0 0
-0.166801 0.06748 0.612247 473 66 66 66
-0.16046 0.0660708 0.59984 496 69 69 69
-0.157261 0.0659339 0.598993 459 64 64 64
-0.153799 0.0656706 0.596957 268 37 37 37
-0.150552 0.0654892 0.595663 108 14 14 14
-0.147341 0.0653242 0.594497 80 10 10 10
-0.143103 0.0646782 0.58895 78 10 10 10
-0.139186 0.0641615 0.584554 73 9 9 9
-0.136288 0.064102 0.584303 74 9 9 9
-0.132256 0.0634849 0.578947 70 9 9 9
-0.127704 0.0625946 0.571092 73 9 9 9
-0.124566 0.0623816 0.569395 70 9 9 9
-0.122274 0.0625807 0.571459 65 8 8 8
-0.120011 0.0628124 0.573786 62 8 8 8
-0.117721 0.0630466 0.575972 71 9 9 9
-0.115031 0.0630623 0.576327 70 9 9 9
-0.111726 0.0627313 0.573494 71 9 9 9
-0.108343 0.0623377 0.570069 85 11 11 11
-0.10591 0.0624931 0.571646 88 11 11 11
-0.103202 0.0624778 0.571661 79 10 10 10
-0.100373 0.0623952 0.571042 82 11 11 11
-0.0975957 0.062339 0.570647 89 12 12 12
-0.0950374 0.0624216 0.571522 91 12 12 12
-0.092338 0.0624237 0.571642 104 14 14 14
-0.0893286 0.0621955 0.569654 106 14 14 14
-0.0865394 0.0621218 0.569061 101 13 13 13
-0.0837894 0.0620701 0.568653 105 14 14 14
-0.0805815 0.0616624 0.564964 101 13 13 13
-0.0793567 0.0628077 0.575506 84 11 11 11
-0.0763444 0.0625523 0.573195 80 10 10 10
-0.0730079 0.0619978 0.568286 66 8 8 8
-0.0709777 0.0625689 0.573533 65 8 8 8
-0.0684211 0.0627001 0.57473 82 11 11 11
-0.0653117 0.062294 0.571146 92 12 12 12
-0.0628398 0.0625212 0.573206 84 11 11 11
-0.0604928 0.0628954 0.576595 60 7 7 7
-0.0576839 0.0627616 0.575471 51 6 6 6
-0.0549418 0.0627475 0.575283 63 8 8 8
-0.0515733 0.061937 0.567937 71 9 9 9
-0.0489005 0.0619173 0.567823 65 8 8 8
-0.0459776 0.0615817 0.564812 65 8 8 8
-0.043133 0.061307 0.562183 63 8 8 8
-0.0403478 0.0610908 0.560232 54 7 7 7
-0.0374701 0.060692 0.556589 41 5 5 5
-0.0346581 0.0603453 0.553423 30 3 3 3
-0.0310999 0.0585352 0.53682 51 6 6 6
-0.0290378 0.0595014 0.545661 75 10 10 10
-0.0266528 0.0598717 0.549192 54 7 7 7
-0.0233132 0.0579643 0.531661 47 6 6 6
-0.0203295 0.0566321 0.519391 44 5 5 5
-0.0174973 0.055395 0.508139 56 7 7 7
-0.0149438 0.0547476 0.502135 62 8 8 8
-0.0124668 0.0542369 0.497512 64 8 8 8
-0.00992155 0.0531394 0.487353 75 10 10 10
-0.00756407 0.0526667 0.483062 84 11 11 11
-0.0052377 0.0520982 0.477878 92 12 12 12
-0.0029634 0.0515835 0.473171 105 14 14 14
-0.000753954 0.0514863 0.472294 119 16 16 16
0.00144898 0.0509439 0.467318 134 18 18 18
0.00362041 0.0506145 0.464282 145 19 19 19
0.00582345 0.0508086 0.466034 148 20 20 20
0.00802091 0.0508611 0.466487 138 18 18 18
0.0101216 0.0503948 0.462298 151 20 20 20
0.0122421 0.0501842 0.460324 138 18 18 18
0.0145566 0.0507478 0.465553 137 18 18 18
0.0167006 0.0506152 0.464265 139 19 19 19
0.0188754 0.0506197 0.464351 123 16 16 16
0.0210792 0.0506557 0.464727 146 20 20 20
0.0233403 0.0508526 0.466433 140 19 19 19
0.025689 0.0511471 0.469152 124 17 17 17
0.0279473 0.0512535 0.47013 113 15 15 15
0.0298463 0.0507315 0.465344 104 14 14 14
0.0317975 0.0503614 0.461937 117 16 16 16
0.0342592 0.0507936 0.465876 93 12 12 12
0.0365742 0.0509735 0.467632 89 12 12 12
0.038798 0.0510053 0.467882 80 10 10 10
0.0409124 0.0509139 0.466989 89 12 12 12
0.0431911 0.0510243 0.467947 91 12 12 12
0.0453655 0.0509912 0.467705 80 10 10 10
0.0475962 0.051033 0.468005 81 10 10 10
0.0495994 0.0508225 0.466108 80 10 10 10
0.0522759 0.0513021 0.470541 83 11 11 11
0.0546939 0.0514981 0.472224 73 9 9 9
0.0568841 0.05147 0.471986 75 10 10 10
0.0587585 0.051167 0.469197 86 11 11 11
0.0611498 0.0513321 0.470568 73 9 9 9
0.0628664 0.0509352 0.466921 74 9 9 9
0.0651717 0.0510241 0.467711 68 9 9 9
0.0681373 0.0515943 0.472899 68 9 9 9
0.0708526 0.0519645 0.476238 72 9 9 9
0.072813 0.0517631 0.474338 66 8 8 8
0.0746762 0.0515049 0.471903 72 9 9 9
0.0764599 0.0512165 0.469178 69 9 9 9
0.0784925 0.0511046 0.46807 72 9 9 9
0.0797901 0.0505318 0.462728 75 10 10 10
0.0818721 0.0504715 0.462079 82 11 11 11
0.0846926 0.0508649 0.465555 72 9 9 9
0.0865771 0.0506662 0.463743 68 9 9 9
0.0888706 0.0507314 0.464213 70 9 9 9
0.0903724 0.0503509 0.460592 72 9 9 9
0.0932908 0.0507657 0.46423 66 8 8 8
0.096739 0.051434 0.47017 66 8 8 8
0.0990441 0.0514846 0.47046 65 8 8 8
0.102349 0.05204 0.475344 70 9 9 9
0.104403 0.0519331 0.474299 73 9 9 9
0.106617 0.0519219 0.473993 72 9 9 9
0.109228 0.0520988 0.475387 75 10 10 10
0.11321 0.0529085 0.48255 75 10 10 10
0.113887 0.0521775 0.475632 82 11 11 11
0.115898 0.0520733 0.474446 92 12 12 12
0.118881 0.0523934 0.477094 84 11 11 11
0.12172 0.0526447 0.479112 108 14 14 14
0.124736 0.0529608 0.481702 93 12 12 12
0.128303 0.053501 0.486309 82 11 11 11
0.130144 0.0533074 0.484245 85 11 11 11
0.131372 0.0528727 0.479978 101 13 13 13
0.135662 0.0536632 0.486815 90 12 12 12
0.138907 0.0540253 0.489759 89 12 12 12
0.141496 0.0541178 0.490223 93 12 12 12
0.143119 0.053849 0.487416 93 12 12 12
0.14542 0.0538484 0.486897 84 11 11 11
0.150635 0.0548991 0.496001 94 12 12 12
0.153388 0.0550277 0.496733 110 15 15 15
0.15548 0.0549389 0.495374 123 16 16 16
0.159291 0.0554294 0.499347 101 13 13 13
0.16221 0.0556039 0.500468 111 15 15 15
0.164753 0.055656 0.500322 130 17 17 17
0.16775 0.0558572 0.501498 145 19 19 19
0.171498 0.0562878 0.504856 124 17 17 17
0.174532 0.0564857 0.505973 120 16 16 16
0.177439 0.0566369 0.506651 164 22 22 22
0.178861 0.0563161 0.503076 362 50 50 50
0.178208 0.0553425 0.493845 682 96 96 96
0.178875 0.054815 0.488434 1143 161 161 161
0.180957 0.0547238 0.486903 1269 179 179 179
0.183056 0.0546444 0.485479 1228 173 173 173
0.186067 0.0548309 0.486398 1227 173 173 173
0.188517 0.0548695 0.485845 1243 175 175 175
0.189567 0.0544841 0.481668 1302 183 183 183
0.192558 0.0546589 0.48243 1317 186 186 186
0.19526 0.0547483 0.482434 1278 180 180 180
0.197233 0.0546373 0.480656 1266 178 178 178
0.196758 0.0538699 0.472945 1209 170 170 170
0.196553 0.0531779 0.46606 1282 181 181 181
0.198672 0.053123 0.464753 1253 176 176 176
0.199924 0.0528397 0.461453 1557 220 220 220
0 0 0 1566 0 0 0
0.206453 0.0533511 0.464059 1346 190 190 190
0.20924 0.0534703 0.464217 1337 188 188 188
0.213418 0.0539379 0.467389 1373 193 193 193
0 0 0 1662 0 0 0
0 0 0 1687 0 0 0
0 0 0 1625 0 0 0
0.221696 0.0536721 0.461555 1335 188 188 188
0.224166 0.0537017 0.460995 1102 155 155 155
0.22438 0.0531952 0.455854 935 131 131 131
0.219395 0.0514855 0.44042 903 127 127 127
0.21825 0.0507053 0.432974 1004 141 141 141
0.220052 0.0506064 0.431484 930 131 131 131
0.222225 0.0505996 0.430781 836 117 117 117
0.223875 0.0504776 0.429097 792 111 111 111
0.225012 0.0502378 0.426555 802 113 113 113
0.226486 0.0500791 0.424705 757 106 106 106
0.227933 0.0499263 0.422906 782 110 110 110
0.228896 0.0496617 0.420303 880 124 124 124
0.230171 0.0494595 0.418354 833 117 117 117
0.23112 0.049214 0.415932 813 114 114 114
0.232698 0.0490989 0.414765 734 103 103 103
0.234549 0.049033 0.414137 684 96 96 96
0.236939 0.0490869 0.414536 644 90 90 90
0.238439 0.048947 0.413436 602 84 84 84
0.239331 0.0486927 0.411384 588 82 82 82
-0.315837 0.0696554 0.563049 335 46 46 46
-0.312226 0.069491 0.562046 349 48 48 48
-0.307737 0.0691374 0.559529 380 53 53 53
-0.303539 0.0688497 0.55756 379 53 53 53
-0.301757 0.0690969 0.56008 404 56 56 56
-0.297948 0.0688918 0.558951 460 64 64 64
-0.293292 0.0684728 0.556238 474 66 66 66
-0.289992 0.0683726 0.556127 525 73 73 73
-0.288058 0.0685843 0.558709 543 76 76 76
-0.284765 0.068496 0.558691 573 80 80 80
-0.281836 0.0684684 0.559479 612 86 86 86
-0.278592 0.0683814 0.559641 654 92 92 92
-0.275233 0.0682529 0.559597 724 102 102 102
-0.2724 0.0682628 0.560666 807 113 113 113
-0.269507 0.0682566 0.56162 883 124 124 124
-0.26684 0.0682929 0.563063 898 126 126 126
-0.264224 0.068348 0.564641 872 122 122 122
-0.261731 0.068455 0.566512 918 129 129 129
-0.259513 0.0686222 0.569004 847 119 119 119
-0.258013 0.0689708 0.573167 822 115 115 115
-0.255842 0.0691647 0.575876 767 108 108 108
-0.253878 0.0694195 0.579078 708 99 99 99
-0.251465 0.0695555 0.581295 624 87 87 87
-0.248849 0.0696373 0.583042 551 77 77 77
-0.246066 0.0696593 0.584433 524 73 73 73
-0.244166 0.0699487 0.587889 511 71 71 71
-0.241392 0.0699969 0.589304 498 69 69 69
-0.238764 0.0700692 0.591087 488 68 68 68
-0.237722 0.0706284 0.596801 465 65 65 65
-0.234681 0.0705996 0.597514 452 63 63 63
-0.23406 0.0713125 0.604514 435 61 61 61
-0.234396 0.0723329 0.614123 419 58 58 58
-0.234822 0.0733871 0.62422 405 56 56 56
-0.231819 0.0734032 0.625288 421 59 59 59
-0.231498 0.07428 0.6337 481 67 67 67
-0.228994 0.0744699 0.636222 622 87 87 87
-0.22601 0.0744992 0.637375 875 123 123 123
-0.224283 0.0749767 0.642168 841 118 118 118
-0.223875 0.0758859 0.650852 751 105 105 105
-0.220971 0.0759695 0.652424 815 114 114 114
-0.21883 0.0763132 0.656234 676 95 95 95
-0.214663 0.0759708 0.653941 625 87 87 87
-0.207305 0.07445 0.641644 654 92 92 92
-0.203613 0.0742401 0.640429 670 94 94 94
-0.199843 0.0739725 0.638889 677 95 95 95
-0.196314 0.0738073 0.63801 635 89 89 89
-0.193093 0.0737532 0.638089 618 86 86 86
-0.189322 0.0734621 0.636291 590 83 83 83
-0.187474 0.0739397 0.640934 540 75 75 75
-0.186382 0.0747351 0.648339 433 60 60 60
-0.186009 0.0758492 0.658502 369 51 51 51
0 0 0 393 0 0 0
-0.167134 0.0705191 0.61328 446 62 62 62
-0.161343 0.0692868 0.602977 443 62 62 62
-0.157031 0.068663 0.597959 448 62 62 62
-0.153457 0.0683352 0.595474 247 34 34 34
-0.150427 0.0682407 0.595019 110 15 15 15
-0.146984 0.0679584 0.592905 79 10 10 10
-0.142376 0.0671244 0.585812 71 9 9 9
-0.138328 0.0665147 0.580794 78 10 10 10
-0.135642 0.0665469 0.581396 66 8 8 8
-0.133549 0.0668757 0.584555 67 8 8 8
-0.129011 0.0659667 0.576891 67 8 8 8
-0.12435 0.0649529 0.568285 73 9 9 9
-0.122785 0.0655452 0.57371 62 8 8 8
-0.120125 0.0655933 0.574216 65 8 8 8
-0.117637 0.0657087 0.575452 71 9 9 9
-0.114707 0.0655854 0.574597 69 9 9 9
-0.111621 0.0653631 0.572837 79 10 10 10
-0.107534 0.064538 0.565791 99 13 13 13
-0.105659 0.0650193 0.570196 91 12 12 12
-0.103252 0.0652064 0.57185 82 11 11 11
-0.100432 0.0651256 0.571292 77 10 10 10
-0.0975505 0.0649981 0.570306 90 12 12 12
-0.0949078 0.0650248 0.570673 101 13 13 13
-0.09215 0.0649823 0.570414 106 14 14 14
-0.0896726 0.0651259 0.571771 101 13 13 13
-0.0870228 0.0651605 0.572172 98 13 13 13
-0.0841985 0.0650601 0.571369 107 14 14 14
-0.0810073 0.0646578 0.567914 101 13 13 13
-0.0797091 0.0657882 0.577886 87 11 11 11
-0.0767744 0.0656127 0.576388 88 11 11 11
-0.0729805 0.0646605 0.568066 69 9 9 9
-0.0705158 0.0648378 0.569786 72 9 9 9
-0.0684766 0.0654521 0.575192 78 10 10 10
-0.0658164 0.0654961 0.575586 102 13 13 13
-0.0630765 0.0654588 0.575387 85 11 11 11
-0.0602905 0.0653649 0.574534 49 6 6 6
-0.0577791 0.065591 0.576492 51 6 6 6
-0.0546637 0.0650985 0.572256 66 8 8 8
-0.052336 0.0655399 0.576229 77 10 10 10
-0.049001 0.064715 0.568913 68 9 9 9
-0.0459552 0.0642016 0.564456 66 8 8 8
-0.0431791 0.0639973 0.562715 64 8 8 8
-0.0403997 0.0637863 0.560898 48 6 6 6
-0.037497 0.0633522 0.556968 34 4 4 4
-0.0345046 0.0626678 0.550954 27 3 3 3
-0.031614 0.0620695 0.545698 64 8 8 8
-0.0290003 0.0619378 0.54469 70 9 9 9
-0.0258417 0.0605593 0.532539 53 6 6 6
-0.0229515 0.0595356 0.523507 54 7 7 7
-0.0201773 0.0586458 0.515655 59 7 7 7
-0.0173664 0.05732 0.504075 66 8 8 8
-0.0148202 0.0566626 0.498236 68 9 9 9
-0.0123678 0.0560945 0.493301 82 11 11 11
-0.00983437 0.0549123 0.482833 90 12 12 12
-0.00749499 0.0544048 0.478401 95 12 12 12
-0.00519292 0.0538492 0.473545 107 14 14 14
-0.00295127 0.0535569 0.471003 113 15 15 15
-0.000747865 0.0532422 0.468235 132 18 18 18
0.00144829 0.0530848 0.466851 143 19 19 19
0.00361797 0.0527312 0.463727 145 19 19 19
0.00579328 0.0526946 0.463391 147 20 20 20
0.00798046 0.0527565 0.463893 149 20 20 20
0.010052 0.0522508 0.459528 154 21 21 21
0.012232 0.0523362 0.460236 142 19 19 19
0.014442 0.0524905 0.461646 132 18 18 18
0.0166917 0.0527858 0.464173 126 17 17 17
0.0189165 0.052889 0.465134 119 16 16 16
0.0211717 0.0530799 0.466839 138 18 18 18
0.0233869 0.0531089 0.46712 136 18 18 18
0.0256177 0.053207 0.467868 127 17 17 17
0.0276824 0.0529577 0.465687 110 15 15 15
0.0297479 0.052744 0.46379 115 15 15 15
0.0316491 0.0522862 0.459747 119 16 16 16
0.0336432 0.0520363 0.457657 117 16 16 16
0.0363718 0.0528745 0.464984 112 15 15 15
0.0387298 0.0531275 0.467162 105 14 14 14
0.0405063 0.0525641 0.462273 100 13 13 13
0.0426867 0.0525847 0.462394 101 13 13 13
0.0454893 0.0533312 0.468884 110 15 15 15
0.0476093 0.05323 0.468031 94 12 12 12
0.0493141 0.0527067 0.463466 78 10 10 10
0.0515691 0.0527881 0.464065 78 10 10 10
0.0544736 0.0534993 0.47034 79 10 10 10
0.0565965 0.0534151 0.469594 75 10 10 10
0.0589476 0.0535424 0.470707 80 10 10 10
0.0616786 0.0540055 0.474629 70 9 9 9
0.0638174 0.0539327 0.473953 78 10 10 10
0.0657796 0.0537186 0.472035 70 9 9 9
0.0682715 0.0539233 0.473784 71 9 9 9
0.0707699 0.0541407 0.475644 75 10 10 10
0.0728311 0.0540079 0.474397 61 8 8 8
0.0746039 0.0536738 0.471397 74 9 9 9
0.0761317 0.0531963 0.46711 64 8 8 8
0.0766716 0.0520729 0.457154 76 10 10 10
0.0759881 0.0501873 0.440618 70 9 9 9
0.0816517 0.0524945 0.460753 71 9 9 9
0.084719 0.0530638 0.465628 74 9 9 9
0.0872663 0.0532856 0.467435 74 9 9 9
0.088966 0.0529902 0.464707 71 9 9 9
0.0901357 0.0523851 0.459361 79 10 10 10
0.0936311 0.0531408 0.465821 74 9 9 9
0.0960354 0.0532555 0.466658 78 10 10 10
0.0992677 0.0538206 0.471426 70 9 9 9
0.102082 0.054138 0.474006 80 10 10 10
0.104145 0.054036 0.473027 82 11 11 11
0.106179 0.0539361 0.471937 75 10 10 10
0.108941 0.0542018 0.474031 77 10 10 10
0.111833 0.0545261 0.476633 85 11 11 11
0.114494 0.0547185 0.478051 86 11 11 11
0.116032 0.0543686 0.474862 104 14 14 14
0.118417 0.0544342 0.475172 91 12 12 12
0.121215 0.0546761 0.477003 136 18 18 18
0.123878 0.0548615 0.478324 103 14 14 14
0.127521 0.0554587 0.483215 88 11 11 11
0.12942 0.0552884 0.481417 95 12 12 12
0.131583 0.0552344 0.480616 83 11 11 11
0.134107 0.0553295 0.481097 90 12 12 12
0.138706 0.0562687 0.488894 92 12 12 12
0.141435 0.0564239 0.489873 101 13 13 13
0.142729 0.0560153 0.485943 98 13 13 13
0.145002 0.0560069 0.485352 94 12 12 12
0.149238 0.0567286 0.491186 97 13 13 13
0.153065 0.05728 0.495535 105 14 14 14
0.15583 0.0574319 0.496269 104 14 14 14
0.158685 0.0576018 0.497292 101 13 13 13
0.161663 0.0578034 0.498554 118 16 16 16
0.163839 0.0577318 0.49732 135 18 18 18
0.166583 0.0578648 0.49783 153 21 21 21
0.169671 0.0580897 0.499267 125 17 17 17
0.173449 0.0585563 0.502601 114 15 15 15
0.17668 0.0588277 0.504251 134 18 18 18
0.180112 0.0591409 0.506378 266 37 37 37
0.179722 0.0582229 0.497812 597 84 84 84
0.179217 0.057292 0.489141 1010 142 142 142
0.181357 0.0572143 0.487768 1174 165 165 165
0.183747 0.0572212 0.4871 1238 174 174 174
0.18662 0.057371 0.487613 1189 167 167 167
0.188892 0.057339 0.486581 1202 169 169 169
0.190859 0.0572113 0.484721 1201 169 169 169
0.193459 0.0572898 0.484473 1244 175 175 175
0.195397 0.0571567 0.482539 1257 177 177 177
0.198307 0.0573073 0.483001 1165 164 164 164
0.196574 0.0561282 0.472237 1183 167 167 167
0.195941 0.0553023 0.464344 1315 185 185 185
0.198267 0.0553099 0.463594 1341 189 189 189
0.19942 0.0549889 0.460063 1615 228 228 228
0.203788 0.0555516 0.463905 1360 192 192 192
0.207152 0.0558348 0.465399 1314 185 185 185
0.210259 0.0560428 0.466244 1403 198 198 198
0.214001 0.0564134 0.468431 1587 224 224 224
0 0 0 1801 0 0 0
0 0 0 1639 0 0 0
0.218799 0.0558511 0.461019 1377 194 194 194
0.221188 0.0558613 0.460295 1113 157 157 157
0.217419 0.0543357 0.446938 1016 143 143 143
0.217869 0.0538842 0.442429 925 130 130 130
0.21535 0.0527222 0.432124 1022 144 144 144
0.217715 0.0527551 0.431734 982 138 138 138
0.219787 0.0527382 0.430814 863 121 121 121
0.221682 0.0526528 0.429577 877 123 123 123
0.223497 0.0525709 0.428264 841 118 118 118
0.224877 0.0523806 0.426174 803 113 113 113
0.226189 0.0521839 0.424051 773 108 108 108
0.227535 0.0519895 0.422083 798 112 112 112
0.227805 0.0515606 0.418215 840 118 118 118
0.229103 0.0513639 0.416367 842 118 118 118
0.23047 0.0511912 0.414714 821 115 115 115
0.232521 0.0511803 0.414402 766 107 107 107
0.234741 0.0511997 0.414451 674 94 94 94
0.235294 0.0508484 0.411633 646 90 90 90
0.236793 0.0507133 0.410594 672 94 94 94
0.238773 0.0506899 0.41046 665 93 93 93
-0.312675 0.0718146 0.557382 338 47 47 47
-0.309179 0.0716783 0.556534 360 50 50 50
-0.30698 0.0718302 0.558073 356 49 49 49
-0.304763 0.0719876 0.559675 367 51 51 51
-0.299528 0.07144 0.555813 431 60 60 60
-0.296178 0.0713039 0.555466 451 63 63 63
-0.292771 0.0711832 0.555087 467 65 65 65
-0.289341 0.0710382 0.554682 510 71 71 71
-0.286117 0.0709541 0.554731 561 78 78 78
-0.284324 0.0712108 0.557613 571 80 80 80
-0.281556 0.0712344 0.558673 645 90 90 90
-0.276972 0.0708031 0.556157 662 93 93 93
-0.275031 0.0710252 0.558922 672 94 94 94
-0.272019 0.0709815 0.559596 661 93 93 93
-0.269672 0.0711163 0.561658 680 95 95 95
-0.269437 0.0718023 0.568237 677 95 95 95
-0.264668 0.0713054 0.565305 728 102 102 102
-0.261142 0.0711163 0.564935 807 113 113 113
-0.256041 0.0704942 0.561093 906 127 127 127
-0.253134 0.0704739 0.56203 797 112 112 112
-0.253918 0.0714864 0.5712 666 93 93 93
-0.254177 0.0723777 0.579429 527 74 74 74
-0.251596 0.0724766 0.581292 485 68 68 68
-0.248607 0.0724335 0.582171 498 69 69 69
-0.244318 0.072031 0.579979 498 69 69 69
-0.241297 0.0719913 0.580682 501 70 70 70
-0.23828 0.0719377 0.581427 497 69 69 69
-0.236709 0.0723381 0.585651 466 65 65 65
-0.235384 0.0728301 0.590629 461 64 64 64
-0.232762 0.0729213 0.592344 458 64 64 64
-0.229845 0.0729274 0.593348 452 63 63 63
-0.227414 0.0730631 0.595549 434 60 60 60
-0.228107 0.0742386 0.606063 410 57 57 57
-0.226512 0.0746903 0.610687 394 55 55 55
-0.227908 0.0761529 0.623561 391 54 54 54
-0.227656 0.0770962 0.63221 412 57 57 57
-0.226823 0.0778586 0.639374 510 71 71 71
-0.223996 0.0779752 0.641053 751 105 105 105
-0.221407 0.0781572 0.643423 789 111 111 111
-0.221174 0.0791798 0.652726 728 102 102 102
-0.217804 0.0790919 0.652862 694 97 97 97
-0.210165 0.0774564 0.640014 674 94 94 94
-0.206866 0.0773656 0.640064 687 96 96 96
-0.203111 0.0771187 0.638627 711 100 100 100
-0.199567 0.076924 0.637789 738 103 103 103
-0.196053 0.0767548 0.636948 713 100 100 100
-0.192146 0.0764223 0.634747 692 97 97 97
-0.188153 0.0760229 0.632153 696 98 98 98
-0.184815 0.0758992 0.631637 674 94 94 94
-0.18248 0.076189 0.634564 596 83 83 83
-0.17977 0.0763275 0.636212 507 71 71 71
-0.176854 0.0763806 0.637148 420 58 58 58
-0.167504 0.0736073 0.61445 434 60 60 60
-0.161979 0.0724439 0.605169 458 64 64 64
-0.156012 0.0710451 0.593904 441 61 61 61
-0.153134 0.0710163 0.594045 224 31 31 31
-0.150753 0.0712205 0.596136 89 12 12 12
-0.146501 0.0705388 0.59079 78 10 10 10
-0.14185 0.0696243 0.583487 69 9 9 9
-0.137679 0.0689214 0.577929 66 8 8 8
-0.135161 0.0690515 0.579181 68 9 9 9
-0.133536 0.0696315 0.584344 66 8 8 8
-0.129857 0.0691416 0.58053 68 9 9 9
-0.126514 0.0688111 0.578031 66 8 8 8
-0.12295 0.0683415 0.574343 61 8 8 8
-0.12156 0.069114 0.580941 59 7 7 7
-0.11728 0.0682198 0.573662 69 9 9 9
-0.114317 0.0680557 0.572518 70 9 9 9
-0.112074 0.0683317 0.575042 72 9 9 9
-0.109395 0.0683764 0.575467 94 12 12 12
-0.105682 0.0677286 0.570214 88 11 11 11
-0.103019 0.0677471 0.570551 84 11 11 11
-0.100572 0.0678985 0.57199 77 10 10 10
-0.0977587 0.0678147 0.571429 82 11 11 11
-0.0951364 0.0678782 0.571959 94 12 12 12
-0.0931133 0.0683775 0.576294 105 14 14 14
-0.0898386 0.0679445 0.572754 106 14 14 14
-0.0873358 0.0680983 0.57416 105 14 14 14
-0.0846487 0.0681114 0.574362 102 13 13 13
-0.0820456 0.0681928 0.575122 102 13 13 13
-0.0795247 0.068348 0.576505 93 12 12 12
-0.0765912 0.0681603 0.574978 91 12 12 12
-0.073209 0.0675423 0.569819 78 10 10 10
-0.070763 0.0677364 0.571626 66 8 8 8
-0.0685353 0.0681969 0.575533 83 11 11 11
-0.0661722 0.0685706 0.578707 93 12 12 12
-0.0629662 0.0680433 0.57424 75 10 10 10
-0.0596882 0.0673865 0.568831 51 6 6 6
-0.0567541 0.0670698 0.566124 52 6 6 6
-0.0551962 0.0684291 0.577715 79 10 10 10
-0.0526795 0.0687179 0.580101 79 10 10 10
-0.0493909 0.0679302 0.573533 67 8 8 8
-0.046097 0.0670597 0.566115 60 7 7 7
-0.0431587 0.0666368 0.562606 60 7 7 7
-0.0400829 0.065902 0.556447 48 6 6 6
-0.0375098 0.0659767 0.557104 37 4 4 4
-0.0345534 0.0653355 0.551717 39 4 4 4
-0.0316663 0.0647292 0.546605 69 9 9 9
-0.0273451 0.0608231 0.513614 61 8 8 8
-0.0245737 0.0599393 0.506144 55 7 7 7
-0.0226933 0.0613118 0.517711 62 8 8 8
-0.0199902 0.0604575 0.510591 70 9 9 9
-0.0170832 0.0587389 0.496039 72 9 9 9
-0.014636 0.0582263 0.491771 72 9 9 9
-0.0121566 0.0574569 0.485222 90 12 12 12
-0.0097269 0.0565982 0.478014 103 14 14 14
-0.00745007 0.0562846 0.475285 121 16 16 16
-0.00515213 0.0556055 0.46958 125 17 17 17
-0.00292321 0.0552114 0.466266 132 18 18 18
-0.000741046 0.0549087 0.463724 136 18 18 18
0.00143976 0.0549247 0.463859 149 20 20 20
0.00362927 0.0550535 0.464932 149 20 20 20
0.00579048 0.0548175 0.462911 145 19 19 19
0.00788859 0.0543593 0.459133 136 18 18 18
0.010045 0.0543446 0.458966 139 19 19 19
0.0122197 0.0544163 0.459516 144 19 19 19
0.0143841 0.0544674 0.46001 137 18 18 18
0.0165807 0.0545604 0.460844 135 18 18 18
0.0188718 0.0549594 0.464129 120 16 16 16
0.0210808 0.0550474 0.464907 131 17 17 17
0.0233719 0.0552765 0.466863 126 17 17 17
0.0254283 0.0549875 0.464428 132 18 18 18
0.0274621 0.0546967 0.461964 129 17 17 17
0.0295677 0.0545789 0.460961 111 15 15 15
0.0319012 0.0548671 0.463373 124 17 17 17
0.0340822 0.0548944 0.463567 121 16 16 16
0.0355827 0.0538647 0.454836 112 15 15 15
0.0380929 0.0543982 0.45941 113 15 15 15
0.0403485 0.0545415 0.460555 100 13 13 13
0.0424036 0.0543974 0.459394 102 13 13 13
0.0447873 0.0546798 0.4617 122 16 16 16
0.0472682 0.0550338 0.464715 102 13 13 13
0.0490041 0.0545391 0.460431 97 13 13 13
0.0513545 0.054741 0.462148 86 11 11 11
0.0539218 0.0551459 0.465565 89 12 12 12
0.0561191 0.0551535 0.465627 87 11 11 11
0.0579912 0.0548507 0.463055 75 10 10 10
0.0609659 0.0555874 0.46912 77 10 10 10
0.0635963 0.0559671 0.472279 77 10 10 10
0.0656765 0.0558389 0.471152 74 9 9 9
0.0677353 0.0557117 0.470018 77 10 10 10
0.0702241 0.0559447 0.471924 75 10 10 10
0.0723663 0.0558681 0.471311 74 9 9 9
0.0744707 0.0557798 0.470477 77 10 10 10
0.0755098 0.0549306 0.463226 71 9 9 9
0.0764789 0.0540779 0.455933 76 10 10 10
0.0784743 0.0539759 0.454958 73 9 9 9
0.0811219 0.0543241 0.457763 75 10 10 10
0.0847272 0.0552537 0.465585 84 11 11 11
0.0863717 0.0549112 0.462552 78 10 10 10
0.0880371 0.0545971 0.459761 81 10 10 10
0.0910216 0.0550951 0.463777 87 11 11 11
0.0932992 0.055136 0.464067 87 11 11 11
0.0964387 0.0556937 0.468583 93 12 12 12
0.0985323 0.0556264 0.467823 86 11 11 11
0.100866 0.0556865 0.468244 98 13 13 13
0.103658 0.0560047 0.470694 104 14 14 14
0.105615 0.0558669 0.469312 91 12 12 12
0.108576 0.0562536 0.472319 83 11 11 11
0.111778 0.0567383 0.476271 85 11 11 11
0.114212 0.0568272 0.476743 90 12 12 12
0.116009 0.0566084 0.474649 106 14 14 14
0.11812 0.056547 0.473846 92 12 12 12
0.12078 0.0567444 0.47521 107 14 14 14
0.123783 0.0570768 0.477814 99 13 13 13
0.126859 0.057444 0.480563 94 12 12 12
0.129403 0.05756 0.481208 95 12 12 12
0.131645 0.057539 0.480691 89 12 12 12
0.134943 0.0579716 0.483946 95 12 12 12
0.137922 0.0582601 0.485977 91 12 12 12
0.140668 0.0584351 0.487058 101 13 13 13
0.14283 0.0583804 0.486078 122 16 16 16
0.145214 0.0584064 0.485899 115 15 15 15
0.150336 0.0595086 0.494635 90 12 12 12
0.15258 0.0594601 0.493797 101 13 13 13
0.155096 0.0595263 0.493763 105 14 14 14
0.157515 0.0595375 0.493404 110 15 15 15
0.160495 0.0597623 0.494781 121 16 16 16
0.163644 0.0600514 0.496552 127 17 17 17
0.16634 0.0601523 0.49688 139 19 19 19
0.169079 0.0602806 0.497299 124 17 17 17
0.172899 0.0607848 0.500779 116 15 15 15
0.177135 0.0614026 0.505317 129 17 17 17
0.179365 0.0613332 0.504043 181 25 25 25
0.17841 0.0601907 0.493948 581 81 81 81
0.180972 0.0602485 0.493698 836 117 117 117
0.182021 0.0598023 0.489323 1101 155 155 155
0.184411 0.0598073 0.488613 1168 164 164 164
0.187211 0.0599377 0.488926 1127 159 159 159
0.190129 0.0601019 0.489493 1171 165 165 165
0.191604 0.059816 0.48638 1214 171 171 171
0.194002 0.0598164 0.485583 1134 160 160 160
0.196636 0.0599046 0.485365 1102 155 155 155
0.194295 0.058477 0.472984 1179 166 166 166
0.194135 0.0577316 0.46615 1296 183 183 183
0.195952 0.0575848 0.464145 1414 199 199 199
0.197662 0.0574097 0.461902 1317 186 186 186
0.201995 0.0580115 0.465761 1368 193 193 193
0.204743 0.0581297 0.46585 1352 190 190 190
0.207355 0.0582111 0.465626 1403 198 198 198
0.212085 0.0588783 0.47006 1512 213 213 213
0 0 0 1723 0 0 0
0 0 0 1651 0 0 0
0.216332 0.0581175 0.461372 1463 206 206 206
0.218704 0.0581372 0.460603 1120 158 158 158
0.21577 0.0567494 0.44881 1009 142 142 142
0.211889 0.0551436 0.435334 1053 148 148 148
0.213623 0.055024 0.433615 1066 150 150 150
0.215557 0.0549613 0.432346 1070 151 151 151
0.217403 0.0548695 0.43095 988 139 139 139
0.219506 0.0548469 0.430099 943 133 133 133
0.221599 0.0548249 0.429266 891 125 125 125
0.223346 0.0547136 0.427836 843 118 118 118
0.224608 0.0544895 0.425541 793 111 111 111
0.225811 0.0542464 0.423231 807 113 113 113
0.226946 0.0540011 0.420892 794 111 111 111
0.227377 0.0536 0.417371 831 117 117 117
0.229107 0.0535007 0.416316 873 123 123 123
0.230251 0.0532613 0.4143 817 115 115 115
0.23231 0.0532411 0.414003 776 109 109 109
0.233748 0.0530881 0.412674 698 98 98 98
0.235281 0.0529527 0.411625 656 92 92 92
0.23613 0.0526717 0.409458 675 95 95 95
0.236772 0.052343 0.407032 639 89 89 89
-0.311158 0.0743113 0.554629 336 47 47 47
-0.30866 0.0743972 0.555499 371 51 51 51
-0.304749 0.0741523 0.553937 386 54 54 54
-0.301577 0.074072 0.553748 410 57 57 57
-0.298477 0.0740152 0.553732 436 61 61 61
-0.295649 0.0740185 0.554328 448 62 62 62
-0.292299 0.0738976 0.554011 477 67 67 67
-0.287908 0.0734974 0.551757 546 76 76 76
-0.28477 0.0734206 0.551904 568 79 79 79
-0.281777 0.0733885 0.552405 580 81 81 81
-0.280104 0.0736924 0.55558 644 90 90 90
-0.275122 0.0731079 0.552196 713 100 100 100
-0.271503 0.0729057 0.551526 807 113 113 113
-0.268489 0.0728436 0.552072 861 121 121 121
-0.265705 0.0728526 0.553136 902 127 127 127
-0.262554 0.0727642 0.55346 953 134 134 134
-0.259894 0.0727922 0.554791 947 133 133 133
-0.259323 0.073436 0.56068 850 119 119 119
-0.257942 0.0738476 0.564956 636 89 89 89
-0.257881 0.0746559 0.572265 519 72 72 72
-0.255022 0.0746571 0.573381 489 68 68 68
-0.250158 0.0740698 0.569947 503 70 70 70
-0.246741 0.073883 0.569731 516 72 72 72
-0.244581 0.0740975 0.572443 516 72 72 72
-0.242888 0.0744539 0.576239 505 70 70 70
-0.23965 0.0743451 0.576419 492 69 69 69
-0.237885 0.0746702 0.580096 488 68 68 68
-0.235505 0.0748333 0.582372 473 66 66 66
-0.233593 0.0751443 0.585785 472 66 66 66
-0.230753 0.0751666 0.586931 484 68 68 68
-0.227404 0.0749956 0.586698 474 66 66 66
-0.226246 0.0755776 0.59219 463 65 65 65
-0.223646 0.0756798 0.593911 459 64 64 64
-0.223177 0.0765151 0.601396 418 58 58 58
-0.220719 0.076681 0.603591 404 56 56 56
-0.219979 0.0774554 0.610587 390 54 54 54
-0.224379 0.0800854 0.632229 403 56 56 56
-0.224142 0.0811019 0.641154 455 63 63 63
-0.221499 0.0812923 0.643395 641 90 90 90
-0.220248 0.0819763 0.649675 649 91 91 91
-0.21745 0.0821032 0.651548 665 93 93 93
-0.20999 0.08046 0.639172 748 105 105 105
-0.206646 0.0803462 0.639075 741 104 104 104
-0.202581 0.0799645 0.636656 695 97 97 97
-0.199114 0.0797891 0.636039 718 101 101 101
-0.195581 0.0796095 0.635201 705 99 99 99
-0.190729 0.0788687 0.629857 745 104 104 104
-0.186722 0.0784576 0.627118 745 104 104 104
-0.183782 0.0784679 0.627904 736 103 103 103
-0.179623 0.0779682 0.624425 709 99 99 99
-0.175541 0.0774848 0.621049 711 100 100 100
-0.171202 0.0768676 0.616574 637 89 89 89
-0.168044 0.0767673 0.616239 454 63 63 63
-0.162878 0.0757284 0.608344 436 61 61 61
-0.156269 0.0739764 0.594684 398 55 55 55
-0.153747 0.0741196 0.59625 206 28 28 28
-0.150931 0.0741225 0.596669 86 11 11 11
-0.147522 0.0738553 0.594742 75 10 10 10
-0.141156 0.072038 0.580454 70 9 9 9
-0.137652 0.0716464 0.577644 65 8 8 8
-0.135227 0.0718102 0.579291 67 8 8 8
-0.132658 0.0719012 0.580352 67 8 8 8
-0.129731 0.0718148 0.579797 60 7 7 7
-0.126509 0.0715378 0.577848 66 8 8 8
-0.1243 0.0718421 0.580596 58 7 7 7
-0.119795 0.0708092 0.57237 63 8 8 8
-0.116903 0.0706941 0.571688 65 8 8 8
-0.113679 0.0703668 0.56927 71 9 9 9
-0.110749 0.0702079 0.568212 75 10 10 10
-0.10931 0.0710263 0.574903 81 10 10 10
-0.106264 0.0707948 0.573223 77 10 10 10
-0.103177 0.0705339 0.571303 81 10 10 10
-0.10055 0.0705792 0.571845 93 12 12 12
-0.0978082 0.070561 0.57171 94 12 12 12
-0.0950288 0.0704926 0.571312 100 13 13 13
-0.0924124 0.0705426 0.571856 108 14 14 14
-0.090222 0.0709284 0.575123 109 14 14 14
-0.087471 0.0708958 0.574963 124 17 17 17
-0.0848161 0.0709394 0.575419 112 15 15 15
-0.0819579 0.0708077 0.574454 115 15 15 15
-0.0789657 0.070545 0.57239 111 15 15 15
-0.0759198 0.0702281 0.569885 100 13 13 13
-0.0736082 0.0705723 0.572745 92 12 12 12
-0.0711323 0.0707941 0.574577 72 9 9 9
-0.0686179 0.0709908 0.576205 81 10 10 10
-0.0657502 0.0708202 0.574852 90 12 12 12
-0.0633352 0.0711605 0.57761 73 9 9 9
-0.0591538 0.0694164 0.56359 46 5 5 5
-0.0568486 0.0698516 0.567102 56 7 7 7
-0.05456 0.07033 0.571107 73 9 9 9
-0.0523134 0.0709306 0.575945 79 10 10 10
-0.0492143 0.0703565 0.571369 74 9 9 9
-0.0463485 0.0700845 0.569103 74 9 9 9
-0.0433668 0.0695996 0.565216 64 8 8 8
-0.0404847 0.0692191 0.562193 50 6 6 6
-0.0375989 0.0687449 0.558374 37 4 4 4
-0.0349452 0.0687045 0.557938 41 5 5 5
0 0 0 61 0 0 0
-0.0269262 0.0622621 0.505759 58 7 7 7
-0.0241736 0.0613002 0.497943 67 8 8 8
-0.0216068 0.0606933 0.492997 82 11 11 11
-0.0192598 0.0605807 0.49205 85 11 11 11
-0.0169287 0.0604749 0.491266 80 10 10 10
-0.014467 0.0598726 0.486326 89 12 12 12
-0.0119994 0.0589221 0.478665 97 13 13 13
-0.00968575 0.0585681 0.475728 126 17 17 17
-0.00738464 0.0579622 0.47085 137 18 18 18
-0.0051234 0.0574481 0.466703 139 19 19 19
-0.00290364 0.0569768 0.462888 141 19 19 19
-0.0007384 0.0568426 0.461798 160 22 22 22
0.0014377 0.0569814 0.462926 154 21 21 21
0.00362873 0.0571883 0.464607 164 22 22 22
0.00577968 0.0569854 0.46293 155 21 21 21
0.00790595 0.0566145 0.459889 141 19 19 19
0.0100375 0.0564188 0.458371 148 20 20 20
0.0121958 0.0564902 0.458895 136 18 18 18
0.0143566 0.0564806 0.458875 140 19 19 19
0.0164872 0.056429 0.458385 130 17 17 17
0.0186906 0.0565952 0.459766 129 17 17 17
0.0210205 0.057029 0.46332 127 17 17 17
0.0231673 0.0569636 0.46279 128 17 17 17
0.02522 0.0567096 0.460628 123 16 16 16
0.027331 0.056602 0.459741 124 17 17 17
0.0296058 0.0568084 0.46152 118 16 16 16
0.0319454 0.0571383 0.464174 115 15 15 15
0.0341015 0.0570933 0.463767 120 16 16 16
0.0357251 0.056236 0.456763 112 15 15 15
0.0379366 0.0563122 0.457441 107 14 14 14
0.0402193 0.056511 0.458987 109 14 14 14
0.0424506 0.0566055 0.459801 102 13 13 13
0.0447569 0.0567975 0.461277 107 14 14 14
0.0467715 0.0566204 0.459856 94 12 12 12
0.048875 0.056557 0.459229 116 15 15 15
0.0511639 0.0567047 0.460432 110 15 15 15
0.0532493 0.0566218 0.459748 100 13 13 13
0.0554095 0.0566196 0.45972 103 14 14 14
0.0574354 0.0564834 0.458588 91 12 12 12
0.0593938 0.056291 0.456987 92 12 12 12
0.0624934 0.0571669 0.464044 85 11 11 11
0.0649116 0.0573796 0.465716 83 11 11 11
0.0671192 0.0573964 0.465784 81 10 10 10
0.0693809 0.0574552 0.466191 85 11 11 11
0.0721823 0.0579417 0.470055 83 11 11 11
0.0741772 0.0577809 0.468651 78 10 10 10
0.0756408 0.0572147 0.463947 80 10 10 10
0.0768679 0.0565012 0.458165 79 10 10 10
0.0793113 0.0567185 0.459802 74 9 9 9
0.082113 0.0571623 0.463272 85 11 11 11
0.0846259 0.0573858 0.464926 84 11 11 11
0.0863041 0.0570399 0.4621 85 11 11 11
0.0878641 0.0566471 0.458749 97 13 13 13
0.09053 0.0569677 0.461174 98 13 13 13
0.0940942 0.0578093 0.467918 102 13 13 13
0.0956614 0.0574348 0.464685 104 14 14 14
0.0976337 0.0573134 0.463502 103 14 14 14
0.100009 0.0574046 0.464141 110 15 15 15
0.102315 0.0574738 0.464484 122 16 16 16
0.105989 0.0582909 0.470852 108 14 14 14
0.10839 0.0583812 0.471451 100 13 13 13
0.112115 0.0591712 0.477562 96 13 13 13
0.113511 0.0587322 0.473751 96 13 13 13
0.115617 0.0586464 0.472897 114 15 15 15
0.118016 0.0587308 0.47328 98 13 13 13
0.121006 0.0590993 0.47595 96 13 13 13
0.1236 0.0592631 0.476952 108 14 14 14
0.126608 0.059615 0.479466 100 13 13 13
0.129196 0.0597596 0.480278 109 14 14 14
0.131108 0.0595751 0.478569 110 15 15 15
0.134448 0.0600487 0.482004 97 13 13 13
0.137383 0.060334 0.483925 104 14 14 14
0.139755 0.0603592 0.48374 110 15 15 15
0.142242 0.0604471 0.483918 115 15 15 15
0.145199 0.060719 0.485674 109 14 14 14
0.149104 0.0613653 0.490418 101 13 13 13
0.152259 0.0616865 0.492541 96 13 13 13
0.15408 0.0614709 0.490361 112 15 15 15
0.156252 0.0614084 0.489262 112 15 15 15
0.159795 0.0618621 0.492399 138 18 18 18
0.163933 0.062545 0.497206 128 17 17 17
0.16662 0.062652 0.497539 123 16 16 16
0.169513 0.0628412 0.498377 125 17 17 17
0.174158 0.0636493 0.504226 120 16 16 16
0.177514 0.0639853 0.506195 131 17 17 17
0.179228 0.0637227 0.503409 140 19 19 19
0.179724 0.0630449 0.497338 435 61 61 61
0.180666 0.0625388 0.492618 844 119 119 119
0.182979 0.0625087 0.491653 1023 144 144 144
0.186803 0.0629935 0.4947 1107 156 156 156
0.18868 0.0628124 0.492514 1128 159 159 159
0.190148 0.0625007 0.489293 1254 177 177 177
0.191888 0.0622847 0.486811 1219 172 172 172
0.194186 0.062258 0.485795 1118 157 157 157
0.193977 0.0614322 0.478539 1037 146 146 146
0.191433 0.0598954 0.465776 1318 186 186 186
0 0 0 1609 0 0 0
0.196511 0.0600506 0.465209 1463 206 206 206
0.198715 0.0600163 0.464118 1431 202 202 202
0.201642 0.0601984 0.464665 1502 212 212 212
0.20538 0.0606199 0.467037 1411 199 199 199
0.207989 0.060702 0.466785 1449 204 204 204
0 0 0 1730 0 0 0
0 0 0 1701 0 0 0
0.213564 0.0603046 0.461029 1523 215 215 215
0.2149 0.0600228 0.45807 1118 157 157 157
0.213174 0.0589156 0.448714 1028 145 145 145
0.210398 0.0575331 0.437398 1065 150 150 150
0.211581 0.0572542 0.434493 1146 161 161 161
0.213751 0.0572529 0.433699 1150 162 162 162
0.21564 0.0571614 0.432333 1023 144 144 144
0.217324 0.0570251 0.430616 1048 147 147 147
0.219125 0.0569249 0.429188 960 135 135 135
0.221093 0.0568762 0.428149 853 120 120 120
0.222817 0.0567582 0.426685 877 123 123 123
0.223923 0.0564743 0.424118 838 118 118 118
0.22397 0.0559413 0.41967 828 116 116 116
0.225148 0.055704 0.41746 839 118 118 118
0.226505 0.0555098 0.415698 848 119 119 119
0.228112 0.0553819 0.414434 792 111 111 111
0.230001 0.0553218 0.413815 799 112 112 112
0.231641 0.0552053 0.412774 727 102 102 102
0.233236 0.0550774 0.411772 689 97 97 97
0.234738 0.0549349 0.410675 657 92 92 92
0.236695 0.0548941 0.410461 684 96 96 96
0.237999 0.0547114 0.409201 662 93 93 93
-0.309152 0.076647 0.551039 346 48 48 48
-0.306981 0.076823 0.55243 366 51 51 51
-0.304275 0.0768594 0.552957 404 56 56 56
-0.297799 0.0759474 0.546695 426 59 59 59
-0.297465 0.0765874 0.551742 455 63 63 63
-0.294684 0.0765921 0.552372 473 66 66 66
-0.290123 0.0761428 0.549742 484 68 68 68
-0.286504 0.0759428 0.548905 545 76 76 76
-0.283443 0.0758722 0.549138 598 84 84 84
-0.281236 0.0760452 0.551151 631 88 88 88
-0.277103 0.0756802 0.549381 752 105 105 105
-0.274046 0.0756138 0.549791 840 118 118 118
-0.271475 0.0756857 0.551206 846 119 119 119
-0.267256 0.0752803 0.549257 921 129 129 129
-0.265253 0.0755069 0.551916 838 118 118 118
-0.26447 0.0760884 0.557179 690 97 97 97
-0.265808 0.0773098 0.567131 543 76 76 76
-0.262416 0.0771472 0.567085 503 70 70 70
-0.257163 0.0764276 0.562931 497 69 69 69
-0.25631 0.0770254 0.568439 504 70 70 70
-0.252118 0.0766155 0.566513 517 72 72 72
-0.247813 0.076167 0.564288 512 71 71 71
-0.246185 0.0765402 0.568111 494 69 69 69
-0.243873 0.0767062 0.570404 488 68 68 68
-0.23743 0.0755674 0.56296 523 73 73 73
-0.236222 0.0760616 0.567815 517 72 72 72
-0.235174 0.0766448 0.573169 508 71 71 71
-0.231636 0.0764206 0.57249 492 69 69 69
-0.229679 0.0767123 0.575656 498 69 69 69
-0.227752 0.0770077 0.578983 493 69 69 69
-0.223761 0.0766168 0.576986 494 69 69 69
-0.221954 0.0769727 0.580592 495 69 69 69
-0.220137 0.0773408 0.58428 499 70 70 70
