ply
format ascii 1.0
comment Generated by royaleviewer 4.24.0.1201
element vertex 1208
property float x
property float y
property float z
property float amplitude
property uchar red
property uchar green
property uchar blue
element face 0
property list uchar int vertex_index
end_header
-0.00945624 0.158985 0.452436 433 66 66 66
-0.00728338 0.158845 0.452081 448 68 68 68
-0.00511835 0.159285 0.453362 430 65 65 65
-0.00296906 0.160433 0.456645 446 68 68 68
-0.00077641 0.159105 0.452881 447 68 68 68
0.00140937 0.15945 0.453862 442 67 67 67
0.00358832 0.159724 0.454629 434 66 66 66
0.00577684 0.159649 0.454386 407 62 62 62
0.00800685 0.160729 0.457471 394 60 60 60
0.0101409 0.159841 0.4549 390 59 59 59
0.0123016 0.159422 0.453663 376 57 57 57
0.0145237 0.159953 0.455156 346 52 52 52
0.0168138 0.161006 0.458079 308 47 47 47
0.0190514 0.161232 0.458674 275 41 41 41
0.021379 0.162217 0.461388 216 32 32 32
0.0236117 0.162351 0.461707 142 21 21 21
0.0261099 0.164128 0.466683 94 13 13 13
0.0288739 0.167087 0.474973 72 10 10 10
0.0310055 0.166287 0.472589 61 8 8 8
0.0329012 0.164415 0.467175 51 7 7 7
0.0351133 0.164261 0.466614 45 6 6 6
0.0379009 0.166654 0.473286 45 6 6 6
0.0404617 0.167833 0.476493 44 6 6 6
0.0418625 0.16433 0.466409 41 5 5 5
0.0439666 0.163803 0.464744 44 6 6 6
0.0463656 0.164371 0.466186 51 7 7 7
0.048495 0.163973 0.46489 50 7 7 7
0.0507992 0.164174 0.465261 53 7 7 7
0.0532797 0.164902 0.467125 60 8 8 8
0.0546482 0.162313 0.459578 58 8 8 8
0.0572229 0.163324 0.462227 66 9 9 9
0.0597193 0.164043 0.464016 68 9 9 9
0.0621084 0.164424 0.464865 61 8 8 8
0.0645494 0.164934 0.466089 70 10 10 10
0.0653121 0.161242 0.455384 61 8 8 8
0.0676616 0.16158 0.456067 66 9 9 9
0.0698338 0.161519 0.455626 75 10 10 10
0.0721762 0.16181 0.456145 74 10 10 10
0.0744269 0.161901 0.456142 75 10 10 10
0.0768265 0.162283 0.456899 81 11 11 11
0.0793817 0.162992 0.458563 81 11 11 11
0.0815495 0.162888 0.457938 74 10 10 10
0.0835807 0.162495 0.456468 77 11 11 11
0.0859838 0.162838 0.457111 87 12 12 12
0.0880671 0.16256 0.455967 85 12 12 12
0.0903036 0.162598 0.455679 84 12 12 12
0.0928622 0.163199 0.456968 85 12 12 12
0.0951056 0.16323 0.456646 83 12 12 12
0.0978701 0.164107 0.458688 80 11 11 11
0.100894 0.165395 0.46184 84 12 12 12
0.102441 0.164242 0.458221 88 13 13 13
0.104964 0.164684 0.458994 92 13 13 13
0.107776 0.165551 0.460947 119 17 17 17
0.110466 0.166175 0.46219 149 22 22 22
0.112783 0.166246 0.461893 155 23 23 23
0.116427 0.168231 0.466891 125 18 18 18
0.118208 0.167498 0.464342 110 16 16 16
0.120461 0.16745 0.463663 114 17 17 17
0.123339 0.168239 0.465342 115 17 17 17
0.126547 0.169476 0.468196 178 26 26 26
0.129951 0.170906 0.471574 336 51 51 51
0.132119 0.170689 0.470369 381 58 58 58
0.130525 0.165687 0.456041 366 56 56 56
0.127218 0.15875 0.436373 403 61 61 61
0.128324 0.157446 0.432254 450 69 69 69
0.130253 0.15716 0.430923 478 73 73 73
0.131637 0.156251 0.427875 500 76 76 76
0.132821 0.155137 0.42427 520 79 79 79
0.134121 0.154208 0.42115 544 83 83 83
0.135772 0.153688 0.419207 560 86 86 86
0.137575 0.153354 0.417743 571 87 87 87
0.139392 0.153043 0.416344 568 87 87 87
0.140864 0.152367 0.413958 579 89 89 89
0.142531 0.151934 0.412256 567 87 87 87
0.147595 0.155065 0.420218 577 88 88 88
0.149339 0.154667 0.418631 597 91 91 91
0.150918 0.154125 0.416656 587 90 90 90
0.15515 0.156254 0.421921 562 86 86 86
0.156991 0.155961 0.42064 571 87 87 87
0.158415 0.155265 0.418312 566 87 87 87
0.159722 0.154485 0.415749 581 89 89 89
0.160956 0.153639 0.413065 573 88 88 88
0.161498 0.152172 0.40874 562 86 86 86
0.162611 0.151271 0.405942 567 87 87 87
0.163694 0.150361 0.40316 581 89 89 89
0.165445 0.150087 0.402136 595 91 91 91
0.16609 0.148823 0.398488 608 93 93 93
0.167834 0.148558 0.397551 609 93 93 93
0.169262 0.148028 0.395958 637 98 98 98
0.171127 0.147896 0.395432 588 90 90 90
0.1725 0.14734 0.393807 606 93 93 93
0.174759 0.147536 0.394282 566 87 87 87
0.176182 0.147036 0.392883 545 83 83 83
0.177715 0.146653 0.391862 534 82 82 82
0.178468 0.145623 0.389147 487 74 74 74
0.183132 0.147774 0.394971 459 70 70 70
0.186165 0.148578 0.39725 437 67 67 67
0.188735 0.149002 0.39855 435 66 66 66
0.193536 0.15116 0.404548 414 63 63 63
0.194812 0.150553 0.403161 394 60 60 60
0.19693 0.150588 0.403573 413 63 63 63
0.197508 0.149461 0.400869 422 64 64 64
0.199362 0.149324 0.400885 410 62 62 62
0.201417 0.149341 0.401318 416 63 63 63
0.201112 0.147599 0.3971 398 61 61 61
0.202718 0.147305 0.3968 369 56 56 56
0.205152 0.1476 0.398128 344 52 52 52
0.206539 0.147146 0.397438 346 52 52 52
0.207758 0.146579 0.396497 329 50 50 50
0.209243 0.146221 0.396122 322 49 49 49
0.210805 0.145926 0.395929 314 48 48 48
0 0 0 317 0 0 0
0 0 0 310 0 0 0
0 0 0 289 0 0 0
0 0 0 286 0 0 0
0 0 0 267 0 0 0
0 0 0 260 0 0 0
0 0 0 251 0 0 0
0 0 0 237 0 0 0
0 0 0 78 0 0 0
-0.345867 0.236403 0.635759 80 11 11 11
-0.34132 0.235484 0.632179 86 12 12 12
-0.338996 0.236059 0.632681 87 12 12 12
-0.336545 0.236575 0.633024 89 13 13 13
-0.333501 0.236705 0.632301 92 13 13 13
-0.330243 0.236657 0.63123 94 13 13 13
-0.325362 0.235443 0.626999 101 15 15 15
-0.3207 0.234379 0.623266 103 15 15 15
-0.317534 0.23436 0.622405 107 15 15 15
-0.314801 0.234703 0.622504 113 16 16 16
-0.307512 0.231601 0.613565 122 18 18 18
-0.304374 0.231576 0.612849 126 18 18 18
-0.296329 0.227817 0.602285 119 17 17 17
0 0 0 112 0 0 0
-0.275961 0.216666 0.571844 116 17 17 17
-0.270315 0.214516 0.565747 115 17 17 17
-0.263257 0.211169 0.556609 115 17 17 17
-0.259146 0.210162 0.553665 120 17 17 17
-0.252271 0.206847 0.544771 132 19 19 19
-0.244043 0.202344 0.532754 155 23 23 23
-0.237405 0.199076 0.524044 162 24 24 24
-0.23355 0.198098 0.521433 160 24 24 24
-0.229579 0.196986 0.518535 182 27 27 27
-0.224681 0.195049 0.513515 197 29 29 29
-0.218327 0.191779 0.505026 258 39 39 39
-0.215476 0.19155 0.504592 206 31 31 31
-0.212677 0.191355 0.50431 210 31 31 31
-0.208727 0.190116 0.501275 237 36 36 36
-0.205059 0.189097 0.498928 239 36 36 36
-0.199915 0.186686 0.49288 244 37 37 37
-0.196029 0.185412 0.489876 297 45 45 45
-0.192911 0.18482 0.488728 337 51 51 51
-0.189911 0.184338 0.487898 333 50 50 50
-0.185503 0.182437 0.48335 376 57 57 57
-0.181736 0.181138 0.480402 435 66 66 66
-0.178822 0.180677 0.479702 472 72 72 72
-0.176021 0.180318 0.47925 454 69 69 69
-0.173187 0.179893 0.478683 458 70 70 70
-0.169408 0.178477 0.475497 490 75 75 75
-0.166178 0.177603 0.47375 526 80 80 80
-0.162989 0.176747 0.472026 544 83 83 83
-0.160009 0.176094 0.470883 606 93 93 93
-0.156722 0.175078 0.468791 679 104 104 104
-0.152874 0.173409 0.464896 837 129 129 129
-0.150478 0.173327 0.46532 830 127 127 127
-0.148352 0.173592 0.466633 709 109 109 109
-0.147097 0.1749 0.47074 594 91 91 91
-0.142468 0.172156 0.463961 787 121 121 121
-0.139898 0.171849 0.463739 850 131 131 131
-0.137163 0.171328 0.462963 920 141 141 141
-0.13509 0.171627 0.464359 932 143 143 143
-0.132906 0.171811 0.465431 929 143 143 143
-0.131021 0.172377 0.467567 905 139 139 139
-0.128852 0.172585 0.468717 839 129 129 129
-0.126345 0.172337 0.468629 712 109 109 109
-0.123891 0.172154 0.468701 670 103 103 103
-0.120452 0.170605 0.46499 650 100 100 100
-0.118206 0.170679 0.465727 675 103 103 103
-0.114912 0.169198 0.462256 688 105 105 105
-0.113218 0.170098 0.465229 615 94 94 94
-0.110783 0.169876 0.465122 592 91 91 91
-0.108355 0.169678 0.465063 558 85 85 85
-0.106087 0.169702 0.465613 559 85 85 85
-0.103501 0.169233 0.464793 554 85 85 85
-0.100094 0.167342 0.460045 573 88 88 88
-0.0981675 0.167922 0.462073 572 87 87 87
-0.0945889 0.16561 0.456136 566 87 87 87
-0.0925214 0.165922 0.457407 607 93 93 93
-0.0903261 0.166014 0.458058 588 90 90 90
-0.0874754 0.164846 0.455215 538 82 82 82
-0.0865411 0.167351 0.462518 486 74 74 74
-0.0843155 0.167381 0.463011 474 72 72 72
-0.0820131 0.167302 0.463146 491 75 75 75
-0.0775146 0.16261 0.450503 551 84 84 84
-0.0753137 0.162573 0.450713 608 93 93 93
-0.0729267 0.162151 0.449857 675 103 103 103
-0.0705146 0.161645 0.448751 745 114 114 114
-0.0682819 0.16153 0.448728 783 120 120 120
-0.0662507 0.161863 0.449936 791 121 121 121
-0.0641442 0.162064 0.450765 880 135 135 135
-0.0617699 0.161578 0.449666 854 131 131 131
-0.0597688 0.162067 0.451281 723 111 111 111
-0.0585904 0.164908 0.459436 548 84 84 84
-0.0566384 0.165709 0.461896 445 68 68 68
-0.0544447 0.165839 0.462471 424 65 65 65
-0.0521408 0.165627 0.462096 409 62 62 62
-0.0498004 0.165225 0.461172 396 60 60 60
-0.0473158 0.164335 0.458871 379 58 58 58
-0.0451398 0.164535 0.459612 398 61 61 61
-0.0426592 0.163515 0.456969 401 61 61 61
-0.0398649 0.16113 0.450454 447 68 68 68
-0.0377738 0.161475 0.451553 444 68 68 68
-0.0354646 0.16087 0.449999 475 72 72 72
-0.0332433 0.160596 0.449391 477 73 73 73
-0.0307072 0.15867 0.444122 491 75 75 75
-0.0287941 0.159915 0.447696 474 72 72 72
-0.0266262 0.159902 0.447791 478 73 73 73
-0.0244262 0.159597 0.447025 458 70 70 70
-0.022256 0.159429 0.446656 447 68 68 68
-0.0202103 0.160227 0.448952 454 69 69 69
-0.0180122 0.159973 0.448329 464 71 71 71
-0.0157727 0.159086 0.445928 485 74 74 74
-0.0136334 0.159104 0.445997 484 74 74 74
-0.0115262 0.159756 0.447897 468 71 71 71
-0.00937653 0.159735 0.447882 480 73 73 73
-0.00726354 0.160512 0.450106 479 73 73 73
-0.00510545 0.16099 0.451474 473 72 72 72
-0.00293278 0.160573 0.45032 486 74 74 74
-0.000774283 0.160773 0.450896 486 74 74 74
0.00139979 0.160465 0.450017 501 76 76 76
0.00354745 0.159999 0.448708 517 79 79 79
0.00567396 0.159291 0.446694 529 81 81 81
0.00783037 0.159285 0.44665 513 78 78 78
0.0100196 0.160023 0.448716 498 76 76 76
0.0122575 0.161149 0.451831 500 76 76 76
0.0144601 0.161363 0.452398 461 70 70 70
0.0167069 0.162104 0.454415 428 65 65 65
0.0189675 0.162792 0.456256 389 59 59 59
0.0211601 0.1628 0.45623 352 53 53 53
0.0233275 0.162525 0.455397 327 50 50 50
0.0254808 0.162313 0.454685 296 45 45 45
0.0277951 0.163065 0.4567 277 42 42 42
0.0300466 0.163362 0.457441 240 36 36 36
0.0323365 0.163827 0.45861 202 30 30 30
0.0349795 0.165893 0.464267 157 23 23 23
0.0373938 0.166688 0.466369 101 15 15 15
0.0393493 0.165462 0.462801 65 9 9 9
0.041412 0.164794 0.460777 54 7 7 7
0.0437372 0.165183 0.461712 48 6 6 6
0.0458318 0.164704 0.460205 61 8 8 8
0.0480181 0.164582 0.459683 68 9 9 9
0.0500761 0.16405 0.458013 70 10 10 10
0.0516627 0.162082 0.452325 76 11 11 11
0 0 0 69 0 0 0
0.0571611 0.165373 0.461067 78 11 11 11
0.0595214 0.165728 0.461826 88 13 13 13
0.062498 0.16771 0.467102 75 10 10 10
0.0646093 0.167335 0.465839 79 11 11 11
0.0659128 0.16494 0.458912 83 12 12 12
0.0675047 0.163434 0.454452 82 12 12 12
0.0702644 0.164725 0.457754 76 11 11 11
0.0734298 0.166893 0.46347 80 11 11 11
0.0747056 0.16473 0.457161 78 11 11 11
0.0769164 0.164726 0.456832 76 11 11 11
0.0793392 0.165132 0.457622 72 10 10 10
0.0814967 0.164993 0.456944 76 11 11 11
0.0837367 0.165007 0.45662 78 11 11 11
0.085517 0.164167 0.453931 86 12 12 12
0.0875265 0.163797 0.452546 91 13 13 13
0.0896289 0.163587 0.451574 89 13 13 13
0.0920987 0.164067 0.452507 87 12 12 12
0.0955121 0.166165 0.457882 89 13 13 13
0.097323 0.165417 0.455395 98 14 14 14
0.0998001 0.165834 0.456117 110 16 16 16
0.101653 0.165218 0.453981 125 18 18 18
0.104366 0.165981 0.455661 146 21 21 21
0.108082 0.168287 0.461511 181 27 27 27
0.110237 0.168116 0.460562 213 32 32 32
0.111218 0.166175 0.45474 215 32 32 32
0.113969 0.166925 0.456287 204 30 30 30
0.117434 0.168672 0.460549 191 28 28 28
0.119953 0.169017 0.460948 181 27 27 27
0.122161 0.168925 0.460196 181 27 27 27
0.124904 0.169557 0.461355 237 36 36 36
0.12567 0.167529 0.455283 307 46 46 46
0.124705 0.163291 0.443236 325 49 49 49
0.124654 0.16041 0.434855 373 57 57 57
0.125077 0.15821 0.428376 427 65 65 65
0.126866 0.157765 0.426629 448 68 68 68
0.12816 0.156746 0.423335 471 72 72 72
0.129678 0.156027 0.420843 505 77 77 77
0.131571 0.155792 0.419659 514 79 79 79
0.133238 0.155269 0.417727 529 81 81 81
0.134572 0.154396 0.414843 564 86 86 86
0.137342 0.155186 0.416427 545 83 83 83
0.139142 0.154856 0.414989 542 83 83 83
0.140303 0.153834 0.411741 545 83 83 83
0.141654 0.153049 0.409167 551 84 84 84
0.143166 0.152469 0.407082 556 85 85 85
0.14497 0.152196 0.405869 563 86 86 86
0.147378 0.152569 0.406402 558 85 85 85
0.1512 0.154359 0.410703 557 85 85 85
0.152924 0.153999 0.409301 566 87 87 87
0.156281 0.155268 0.412227 554 85 85 85
0.16012 0.156988 0.416379 537 82 82 82
0.161633 0.156395 0.414429 522 80 80 80
0.161817 0.154558 0.409189 520 79 79 79
0.162469 0.153205 0.405275 523 80 80 80
0.163496 0.152231 0.402405 546 83 83 83
0.164553 0.151317 0.399734 539 82 82 82
0.165943 0.150722 0.397943 555 85 85 85
0.167498 0.150297 0.396603 576 88 88 88
0.169249 0.150037 0.395772 583 89 89 89
0.170453 0.149323 0.393758 578 88 88 88
0.171881 0.148813 0.392318 573 88 88 88
0.173819 0.148743 0.392112 551 84 84 84
0.174415 0.147556 0.388976 559 85 85 85
0.175651 0.146922 0.387335 565 86 86 86
0.176577 0.146054 0.385087 545 83 83 83
0.178653 0.146134 0.385412 513 78 78 78
0.179838 0.145493 0.383873 485 74 74 74
0.181359 0.145137 0.383147 449 68 68 68
0.183562 0.145332 0.383866 441 67 67 67
0.190729 0.149413 0.394919 389 59 59 59
0.194161 0.1505 0.398144 357 54 54 54
0.196291 0.150584 0.398683 355 54 54 54
0.197969 0.150307 0.398373 387 59 59 59
0.198221 0.148965 0.39526 409 62 62 62
0.199507 0.148421 0.394291 395 60 60 60
0.201225 0.148219 0.394231 375 57 57 57
0.202809 0.147908 0.393956 345 52 52 52
0.204645 0.147801 0.394204 339 51 51 51
0.206621 0.147781 0.394774 336 51 51 51
0 0 0 318 0 0 0
0 0 0 315 0 0 0
0 0 0 305 0 0 0
0 0 0 291 0 0 0
0 0 0 282 0 0 0
0 0 0 289 0 0 0
0 0 0 274 0 0 0
0 0 0 246 0 0 0
0 0 0 254 0 0 0
0 0 0 240 0 0 0
-0.34709 0.238229 0.634001 71 10 10 10
-0.344056 0.238335 0.63319 79 11 11 11
-0.339505 0.237368 0.629517 83 12 12 12
-0.337013 0.237855 0.629731 86 12 12 12
-0.334642 0.23844 0.630207 87 12 12 12
-0.330809 0.237946 0.627899 90 13 13 13
-0.32672 0.237278 0.625163 93 13 13 13
-0.321934 0.236105 0.62111 103 15 15 15
-0.318374 0.235818 0.619402 107 15 15 15
-0.315369 0.235923 0.618807 115 17 17 17
-0.312502 0.236113 0.618502 124 18 18 18
-0.308184 0.235239 0.615435 128 19 19 19
-0.304112 0.234518 0.61286 124 18 18 18
-0.300401 0.234046 0.610997 127 19 19 19
-0.290623 0.228826 0.596782 125 18 18 18
0 0 0 122 0 0 0
-0.270418 0.217478 0.566253 119 17 17 17
-0.268179 0.218023 0.567317 118 17 17 17
-0.260283 0.213935 0.556335 118 17 17 17
-0.250893 0.208482 0.541938 118 17 17 17
-0.242907 0.204126 0.530403 140 21 21 21
-0.238586 0.202755 0.526729 145 21 21 21
-0.233703 0.200877 0.521776 165 24 24 24
-0.228311 0.198534 0.515648 196 29 29 29
-0.225155 0.198092 0.514523 204 30 30 30
-0.217299 0.193446 0.502541 260 39 39 39
-0.215758 0.194385 0.505094 192 29 29 29
-0.211974 0.193293 0.502451 196 29 29 29
-0.208819 0.192763 0.501296 211 32 32 32
-0.205849 0.192403 0.50058 212 32 32 32
-0.202177 0.191345 0.498155 235 35 35 35
-0.195611 0.187497 0.488456 269 41 41 41
-0.192402 0.186802 0.487054 301 46 46 46
-0.189695 0.186596 0.486905 312 47 47 47
-0.186584 0.185976 0.48569 357 54 54 54
-0.181269 0.18311 0.478688 389 59 59 59
-0.178645 0.182935 0.478696 414 63 63 63
-0.176272 0.182995 0.479376 405 62 62 62
-0.173536 0.182687 0.479077 435 66 66 66
-0.168576 0.179995 0.472542 497 76 76 76
-0.164537 0.178221 0.468463 540 83 83 83
-0.162042 0.17809 0.468679 539 82 82 82
-0.160608 0.17912 0.471979 626 96 96 96
-0.155776 0.17635 0.465259 766 118 118 118
-0.15293 0.175795 0.464372 880 135 135 135
-0.150484 0.175671 0.464648 848 130 130 130
-0.148312 0.175865 0.465767 625 96 96 96
-0.145395 0.175187 0.464556 665 102 102 102
-0.142237 0.174174 0.462477 821 126 126 126
-0.139833 0.174081 0.462795 879 135 135 135
-0.137244 0.173734 0.462461 918 141 141 141
-0.134916 0.173714 0.463024 925 142 142 142
-0.132863 0.174068 0.464543 896 138 138 138
-0.13063 0.174173 0.465381 815 125 125 125
-0.128659 0.174643 0.467223 686 105 105 105
-0.124974 0.172758 0.462761 686 105 105 105
-0.122352 0.172322 0.462157 667 102 102 102
-0.120163 0.172485 0.4631 651 100 100 100
-0.117427 0.171834 0.461883 649 99 99 99
-0.114985 0.171598 0.461778 611 94 94 94
-0.112663 0.171556 0.462181 602 92 92 92
-0.110408 0.171593 0.462777 599 92 92 92
-0.10766 0.170858 0.461334 588 90 90 90
-0.105471 0.170987 0.462148 615 94 94 94
-0.102487 0.169829 0.459482 582 89 89 89
-0.09943 0.168469 0.45626 606 93 93 93
-0.0967279 0.167687 0.454568 604 92 92 92
-0.0941799 0.167114 0.45344 634 97 97 97
-0.0919824 0.167177 0.45402 653 100 100 100
-0.0889714 0.165699 0.450398 604 92 92 92
-0.0871711 0.166486 0.452916 593 91 91 91
-0.0848095 0.166198 0.452551 578 88 88 88
-0.0820006 0.16498 0.449595 615 94 94 94
-0.0793993 0.164154 0.447687 689 106 106 106
-0.0770378 0.16379 0.447037 788 121 121 121
-0.0749345 0.163937 0.447766 792 122 122 122
-0.0727602 0.163965 0.448155 857 132 132 132
-0.0703346 0.163409 0.446935 868 133 133 133
-0.0681773 0.163461 0.447359 853 131 131 131
-0.0663654 0.164334 0.450033 848 130 130 130
-0.0642225 0.164456 0.450636 827 127 127 127
-0.0623185 0.165218 0.452996 689 106 106 106
-0.0607469 0.166934 0.457985 513 78 78 78
-0.0584744 0.166796 0.45785 441 67 67 67
-0.0563425 0.167063 0.458811 438 67 67 67
-0.0544143 0.167932 0.461429 408 62 62 62
-0.0518766 0.166961 0.458975 395 60 60 60
-0.0488349 0.164208 0.451601 396 60 60 60
-0.046231 0.162736 0.447732 411 63 63 63
-0.0442085 0.163251 0.449368 431 66 66 66
-0.0419859 0.163056 0.448996 419 64 64 64
-0.0394285 0.161467 0.44477 469 72 72 72
-0.0373346 0.161701 0.445548 492 75 75 75
-0.0351323 0.161516 0.445213 506 77 77 77
-0.03279 0.160564 0.442708 511 78 78 78
-0.0306042 0.160284 0.442093 521 80 80 80
-0.0285896 0.160939 0.443991 491 75 75 75
-0.0265384 0.161476 0.445561 462 70 70 70
-0.0244123 0.161594 0.446018 437 67 67 67
-0.0222468 0.161568 0.446009 448 68 68 68
-0.0199977 0.160731 0.443798 492 75 75 75
-0.0178172 0.160311 0.442726 501 76 76 76
-0.0157466 0.160916 0.444441 506 77 77 77
-0.013546 0.160323 0.442875 496 76 76 76
-0.0114012 0.160091 0.442292 506 77 77 77
-0.009253 0.159693 0.441236 493 75 75 75
-0.00721407 0.161505 0.446287 509 78 78 78
-0.00504206 0.161072 0.445117 523 80 80 80
-0.00289587 0.160627 0.443903 559 85 85 85
-0.00076208 0.16031 0.443042 555 85 85 85
0.00137929 0.160185 0.442695 591 90 90 90
0.00352207 0.160933 0.444748 597 91 91 91
0.00566226 0.161042 0.445021 554 85 85 85
0.00782368 0.16153 0.446341 508 78 78 78
0.0100292 0.162271 0.448386 477 73 73 73
0.0122029 0.16253 0.449056 479 73 73 73
0.0144002 0.162978 0.450237 454 69 69 69
0.0166639 0.163948 0.452883 427 65 65 65
0.018877 0.164136 0.453314 388 59 59 59
0.0210485 0.16406 0.453058 380 58 58 58
0.0232538 0.16425 0.453479 362 55 55 55
0.0255475 0.164963 0.455369 338 51 51 51
0.0277919 0.165269 0.456135 326 49 49 49
0.0299913 0.165293 0.456054 305 46 46 46
0.0321975 0.165335 0.456076 292 44 44 44
0.034485 0.16576 0.457127 286 43 43 43
0.0368482 0.166474 0.458973 281 42 42 42
0.0385271 0.164204 0.452539 287 43 43 43
0.0406995 0.164154 0.452247 319 48 48 48
0.0422153 0.161593 0.445045 374 57 57 57
0.0446181 0.16251 0.447406 419 64 64 64
0.0466712 0.162126 0.446172 419 64 64 64
0.0487881 0.161987 0.44561 382 58 58 58
0.0512194 0.162858 0.447797 304 46 46 46
0.0536116 0.163582 0.449594 258 39 39 39
0.0557596 0.16349 0.449116 278 42 42 42
0.0578059 0.163117 0.447868 291 44 44 44
0.0598935 0.162921 0.447093 294 44 44 44
0.0619465 0.16261 0.445986 290 44 44 44
0.0642689 0.163001 0.446792 270 41 41 41
0.0669615 0.16431 0.450111 273 41 41 41
0.069406 0.164897 0.451472 268 40 40 40
0.0715655 0.164838 0.451026 254 38 38 38
0.0738612 0.165053 0.451298 221 33 33 33
0.0766434 0.166342 0.454507 185 28 28 28
0.0790492 0.166733 0.455241 167 25 25 25
0.0800361 0.164222 0.448054 167 25 25 25
0.0823231 0.16441 0.448208 192 29 29 29
0.0846022 0.1646 0.448369 225 34 34 34
0.0873623 0.165693 0.450985 237 36 36 36
0.0884496 0.16361 0.444927 232 35 35 35
0.0903124 0.163052 0.443025 243 37 37 37
0.0927472 0.163529 0.443918 246 37 37 37
0.0942777 0.162425 0.440508 260 39 39 39
0.09616 0.161938 0.438775 279 42 42 42
0.0983962 0.162078 0.438713 298 45 45 45
0.100612 0.16218 0.438547 319 48 48 48
0.102963 0.162475 0.43894 352 53 53 53
0.104999 0.162283 0.437952 362 55 55 55
0.10727 0.162456 0.437944 370 56 56 56
0.109826 0.163044 0.439041 397 60 60 60
0.11313 0.164697 0.442984 404 61 61 61
0.115814 0.165401 0.444367 383 58 58 58
0.117984 0.165344 0.443727 374 57 57 57
0.119339 0.164181 0.440069 354 54 54 54
0.121407 0.164029 0.439149 342 52 52 52
0.121531 0.161295 0.431289 354 54 54 54
0.121909 0.158992 0.424619 403 61 61 61
0.121415 0.155629 0.415124 450 69 69 69
0.123266 0.155353 0.413874 486 74 74 74
0.125712 0.155822 0.414594 488 74 74 74
0.127898 0.155976 0.41446 514 79 79 79
0.12872 0.154455 0.409915 509 78 78 78
0.132762 0.156801 0.415617 522 80 80 80
0.1348 0.15676 0.414984 511 78 78 78
0.135516 0.155173 0.410288 539 82 82 82
0.136589 0.154066 0.406817 531 81 81 81
0.138968 0.154429 0.407304 538 82 82 82
0.141063 0.154468 0.406896 542 83 83 83
0.14283 0.154151 0.405613 553 85 85 85
0.144209 0.153441 0.403262 557 85 85 85
0.146532 0.153742 0.403589 559 85 85 85
0.149078 0.154249 0.404492 528 81 81 81
0.150715 0.153824 0.402952 526 80 80 80
0.152205 0.153261 0.401088 542 83 83 83
0.156636 0.155633 0.40692 534 82 82 82
0.159502 0.156404 0.408611 521 80 80 80
0.161722 0.15654 0.408626 492 75 75 75
0.162472 0.155263 0.405008 492 75 75 75
0.163274 0.154076 0.401612 494 75 75 75
0.164483 0.153293 0.39936 493 75 75 75
0.166202 0.152981 0.398356 486 74 74 74
0.167665 0.152463 0.396835 498 76 76 76
0.169009 0.151845 0.395088 520 79 79 79
0.169991 0.150926 0.392608 518 79 79 79
0.17133 0.150335 0.391018 513 78 78 78
0.172556 0.149664 0.389257 512 78 78 78
0.173185 0.148489 0.38622 555 85 85 85
0.175291 0.148597 0.386568 575 88 88 88
0.176362 0.147837 0.38471 549 84 84 84
0.177631 0.14725 0.383335 524 80 80 80
0.179028 0.146796 0.382308 514 79 79 79
0.180047 0.146023 0.380532 499 76 76 76
0.181984 0.146018 0.380772 451 69 69 69
0.183064 0.145333 0.379275 423 64 64 64
0.184763 0.14515 0.379135 395 60 60 60
0.190032 0.14775 0.386273 355 54 54 54
0.195209 0.150212 0.39315 339 51 51 51
0.197505 0.150432 0.394185 329 50 50 50
0.198473 0.149645 0.39262 347 53 53 53
0.199191 0.148701 0.390653 351 53 53 53
0.201465 0.148913 0.391761 358 54 54 54
0 0 0 352 0 0 0
0 0 0 319 0 0 0
0 0 0 320 0 0 0
0 0 0 309 0 0 0
0 0 0 316 0 0 0
0 0 0 291 0 0 0
0 0 0 277 0 0 0
0 0 0 264 0 0 0
0 0 0 242 0 0 0
0 0 0 235 0 0 0
0 0 0 226 0 0 0
0 0 0 235 0 0 0
-0.344809 0.239831 0.630585 79 11 11 11
-0.341625 0.239813 0.629474 83 12 12 12
-0.335932 0.238003 0.623652 86 12 12 12
-0.332302 0.237654 0.621696 89 13 13 13
-0.332319 0.239917 0.626549 86 12 12 12
-0.32836 0.239344 0.624017 88 13 13 13
-0.322341 0.237225 0.61753 91 13 13 13
-0.320443 0.238152 0.618926 106 15 15 15
-0.317111 0.238001 0.617602 117 17 17 17
-0.313733 0.23781 0.616241 121 18 18 18
-0.310312 0.237586 0.614821 122 18 18 18
-0.307244 0.23763 0.614156 122 18 18 18
-0.303375 0.237052 0.611913 127 19 19 19
-0.299448 0.236416 0.609585 135 20 20 20
-0.295274 0.235574 0.606755 129 19 19 19
-0.291235 0.234801 0.604245 136 20 20 20
-0.287444 0.234238 0.602279 129 19 19 19
-0.272793 0.224718 0.577382 132 19 19 19
-0.265014 0.220696 0.566692 125 18 18 18
-0.254335 0.214167 0.549601 116 17 17 17
-0.246089 0.209531 0.537484 133 19 19 19
-0.241488 0.207951 0.533234 137 20 20 20
-0.236961 0.206386 0.529121 146 21 21 21
-0.230665 0.203232 0.520957 177 26 26 26
-0.226096 0.201551 0.516616 201 30 30 30
-0.216502 0.195302 0.500633 257 39 39 39
-0.217738 0.198782 0.509631 183 27 27 27
-0.213891 0.197639 0.506826 180 27 27 27
-0.209554 0.19602 0.502841 202 30 30 30
-0.206324 0.1954 0.501483 187 28 28 28
-0.198946 0.19078 0.489894 220 33 33 33
-0.19594 0.190316 0.48897 264 40 40 40
-0.191877 0.188777 0.485366 278 42 42 42
-0.188971 0.188364 0.48467 286 43 43 43
-0.184005 0.185852 0.478595 335 51 51 51
-0.180278 0.184521 0.475594 372 57 57 57
-0.178174 0.184869 0.476917 380 58 58 58
-0.175162 0.18425 0.47583 379 58 58 58
-0.171239 0.182674 0.472204 439 67 67 67
-0.168154 0.181922 0.47079 470 72 72 72
-0.164758 0.180823 0.468469 523 80 80 80
-0.162223 0.180664 0.468581 577 88 88 88
-0.158471 0.179108 0.465086 668 102 102 102
-0.155639 0.178541 0.464198 791 121 121 121
-0.152968 0.17818 0.463838 820 126 126 126
-0.15036 0.177861 0.463572 784 120 120 120
-0.148962 0.178987 0.467099 570 87 87 87
-0.144769 0.176755 0.461858 770 118 118 118
-0.142204 0.176449 0.461626 867 133 133 133
-0.140765 0.177555 0.465134 902 139 139 139
-0.137976 0.176982 0.464168 888 136 136 136
-0.135534 0.176845 0.464402 844 130 130 130
-0.132865 0.176364 0.463756 741 114 114 114
-0.130322 0.176073 0.463551 646 99 99 99
-0.127158 0.174916 0.461046 654 100 100 100
-0.124244 0.17405 0.459323 686 105 105 105
-0.122017 0.174131 0.460101 670 103 103 103
-0.119126 0.17325 0.458316 637 98 98 98
-0.116924 0.173369 0.459134 616 94 94 94
-0.114853 0.173676 0.460477 600 92 92 92
-0.112393 0.173416 0.460303 608 93 93 93
-0.109341 0.172191 0.457545 615 94 94 94
-0.107116 0.172267 0.458227 613 94 94 94
-0.104493 0.171666 0.457106 637 98 98 98
-0.101261 0.170001 0.453171 636 97 97 97
-0.0984861 0.169086 0.451172 634 97 97 97
-0.0957032 0.168115 0.449017 642 98 98 98
-0.0933019 0.167756 0.44848 676 104 104 104
-0.0911066 0.167786 0.448967 686 105 105 105
-0.0884493 0.166916 0.44703 688 105 105 105
-0.0852325 0.164948 0.442129 677 104 104 104
-0.0830148 0.164845 0.442263 697 107 107 107
-0.0809126 0.164957 0.442919 796 122 122 122
-0.0792739 0.166076 0.446282 751 115 115 115
-0.076842 0.165549 0.445193 785 120 120 120
-0.0746377 0.165462 0.445288 835 128 128 128
-0.0725259 0.165614 0.446009 876 135 135 135
-0.0702902 0.165468 0.445954 865 133 133 133
-0.0681408 0.165501 0.446342 829 127 127 127
-0.066376 0.166538 0.449422 727 112 112 112
-0.0646843 0.167834 0.453192 576 88 88 88
-0.0628342 0.168795 0.456046 466 71 71 71
-0.0606193 0.168809 0.456343 410 62 62 62
-0.0584115 0.168801 0.456564 403 61 61 61
-0.0559675 0.168111 0.454967 402 61 61 61
-0.053195 0.166352 0.450432 428 65 65 65
-0.0506253 0.165103 0.447259 434 66 66 66
-0.0481532 0.164073 0.444661 434 66 66 66
-0.0460448 0.164242 0.445299 457 70 70 70
-0.0437747 0.163807 0.444336 449 68 68 68
-0.0413603 0.162773 0.441695 461 70 70 70
-0.0390423 0.162025 0.439814 472 72 72 72
-0.0370065 0.162414 0.441042 485 74 74 74
-0.0349419 0.16273 0.442035 517 79 79 79
-0.0326859 0.162137 0.440541 515 79 79 79
-0.0305411 0.162034 0.44042 498 76 76 76
-0.028466 0.162328 0.441324 499 76 76 76
-0.0263943 0.162762 0.442634 471 72 72 72
-0.0243387 0.163299 0.44417 465 71 71 71
-0.0221316 0.162808 0.442935 470 72 72 72
-0.0198369 0.161498 0.439472 514 79 79 79
-0.017681 0.161156 0.438601 550 84 84 84
-0.0155982 0.161606 0.439899 550 84 84 84
-0.01352 0.162082 0.441266 508 78 78 78
-0.011357 0.16153 0.439821 535 82 82 82
-0.00920957 0.161011 0.43841 542 83 83 83
-0.00710525 0.161138 0.438799 571 87 87 87
-0.00499232 0.161557 0.439968 578 88 88 88
-0.00287903 0.16177 0.440578 583 89 89 89
-0.00075847 0.161626 0.440185 588 90 90 90
0.00136375 0.162128 0.441552 570 87 87 87
0.00350899 0.16242 0.442334 575 88 88 88
0.00564019 0.162486 0.442539 552 84 84 84
0.00777038 0.162502 0.442552 526 80 80 80
0.00998277 0.16386 0.446207 496 76 76 76
0.0121827 0.164372 0.447543 465 71 71 71
0.0142624 0.163504 0.445162 448 68 68 68
0.0163579 0.16303 0.4438 433 66 66 66
0.0186001 0.163946 0.446244 425 65 65 65
0.0209188 0.165286 0.449805 402 61 61 61
0.0232646 0.166555 0.453196 394 60 60 60
0.0255576 0.167273 0.455029 382 58 58 58
0.0278363 0.167776 0.456319 390 59 59 59
0.029587 0.165172 0.449146 437 67 67 67
0.0314326 0.163508 0.444474 494 75 75 75
0.0336064 0.163639 0.444712 566 87 87 87
0.0358066 0.163874 0.44523 610 93 93 93
0.038158 0.164796 0.447601 583 89 89 89
0.0404493 0.165328 0.448854 574 88 88 88
0.0427054 0.165654 0.449588 545 83 83 83
0.0450638 0.166325 0.451243 446 68 68 68
0.0471429 0.165949 0.450042 340 52 52 52
0.0491461 0.16535 0.448237 323 49 49 49
0.0513615 0.165483 0.44839 317 48 48 48
0.053578 0.165654 0.448657 301 46 46 46
0.0556563 0.165356 0.447625 286 43 43 43
0.0577584 0.165147 0.446822 282 43 43 43
0.0599171 0.165149 0.446588 270 41 41 41
0.0619399 0.164749 0.445269 282 43 43 43
0.0652385 0.167654 0.452847 274 41 41 41
0.066832 0.166166 0.448559 271 41 41 41
0.0692956 0.16683 0.450066 274 41 41 41
0.0714137 0.166681 0.449363 261 39 39 39
0.0730521 0.16542 0.445666 267 40 40 40
0.0739573 0.162651 0.437898 267 40 40 40
0.077039 0.164658 0.442974 282 43 43 43
0.0789331 0.164115 0.441175 289 44 44 44
0.0807616 0.163438 0.439017 307 46 46 46
0.0835063 0.16463 0.441864 328 50 50 50
0.0848287 0.163029 0.437199 331 50 50 50
0.0861796 0.161531 0.432806 334 51 51 51
0.0897091 0.164117 0.43935 339 51 51 51
0.0919621 0.1643 0.439443 334 51 51 51
0.0933281 0.162926 0.435358 344 52 52 52
0.0956412 0.163205 0.435676 355 54 54 54
0.09693 0.161785 0.431464 367 56 56 56
0.0992828 0.162163 0.432036 395 60 60 60
0.101635 0.162509 0.432545 416 63 63 63
0.104703 0.163976 0.435991 438 67 67 67
0.106695 0.163731 0.434869 462 70 70 70
0.110121 0.165653 0.439485 473 72 72 72
0.11281 0.166412 0.440989 482 74 74 74
0.114257 0.16533 0.437641 468 71 71 71
0.115801 0.16444 0.434768 422 64 64 64
0.117743 0.164142 0.433489 396 60 60 60
0.118918 0.1628 0.429418 368 56 56 56
0.119616 0.160866 0.42382 393 60 60 60
0.120081 0.158691 0.417587 468 71 71 71
0.120669 0.156731 0.411916 498 76 76 76
0.122866 0.156927 0.411918 501 76 76 76
0.124596 0.156497 0.4103 499 76 76 76
0.125968 0.155651 0.407545 518 79 79 79
0.126977 0.154393 0.403754 503 77 77 77
0.128263 0.153521 0.400966 523 80 80 80
0.130468 0.153729 0.401035 543 83 83 83
0.133039 0.154369 0.402215 518 79 79 79
0.135623 0.155002 0.403372 534 82 82 82
0.137717 0.155065 0.403066 532 81 81 81
0.139476 0.154767 0.401823 546 83 83 83
0.14136 0.1546 0.400955 562 86 86 86
0.143412 0.154616 0.400549 553 85 85 85
0.145152 0.154298 0.399314 565 86 86 86
0.14801 0.155173 0.401148 500 76 76 76
0.148679 0.153758 0.397114 503 77 77 77
0.150553 0.153608 0.396373 525 80 80 80
0.152348 0.153394 0.395465 532 81 81 81
0.156838 0.155845 0.401459 546 83 83 83
0.15929 0.156244 0.402198 495 76 76 76
0.16078 0.155697 0.400535 488 74 74 74
0.165965 0.158692 0.408017 456 70 70 70
0.165819 0.156587 0.4024 445 68 68 68
0.166274 0.155102 0.398402 470 72 72 72
0.167779 0.154602 0.396985 459 70 70 70
0.168656 0.153547 0.394217 481 73 73 73
0.169301 0.152304 0.390963 487 74 74 74
0.17017 0.151292 0.388357 488 74 74 74
0.170294 0.149669 0.38418 505 77 77 77
0.172952 0.150263 0.385763 513 78 78 78
0.174075 0.149529 0.383986 521 80 80 80
0.175356 0.148951 0.382609 528 81 81 81
0.175768 0.147644 0.379443 518 79 79 79
0.177569 0.147536 0.379357 502 77 77 77
0.179099 0.147185 0.378728 497 76 76 76
0.180325 0.146609 0.377535 474 72 72 72
0.181761 0.146229 0.376845 448 68 68 68
0.182839 0.145548 0.37545 419 64 64 64
0.183858 0.144848 0.37403 383 58 58 58
0.186491 0.145422 0.375924 370 56 56 56
0.189141 0.145986 0.377859 363 55 55 55
0.196191 0.14989 0.388492 339 51 51 51
0.197992 0.149782 0.388706 303 46 46 46
0 0 0 313 0 0 0
0 0 0 324 0 0 0
0 0 0 322 0 0 0
0 0 0 309 0 0 0
0 0 0 295 0 0 0
0 0 0 302 0 0 0
0 0 0 302 0 0 0
0 0 0 283 0 0 0
0 0 0 268 0 0 0
0 0 0 253 0 0 0
0 0 0 231 0 0 0
0 0 0 227 0 0 0
0 0 0 223 0 0 0
-0.33896 0.238844 0.62063 82 12 12 12
-0.338541 0.240749 0.624546 82 12 12 12
-0.337814 0.242478 0.627914 84 12 12 12
-0.334454 0.242327 0.626474 86 12 12 12
-0.32797 0.239875 0.619101 88 13 13 13
-0.324734 0.239795 0.617867 90 13 13 13
-0.319318 0.238073 0.612439 103 15 15 15
-0.31739 0.238963 0.61374 117 17 17 17
-0.314998 0.239498 0.614187 123 18 18 18
-0.312743 0.240153 0.61494 122 18 18 18
-0.30896 0.239656 0.612795 119 17 17 17
-0.305704 0.239544 0.611674 121 18 18 18
-0.302556 0.239513 0.610844 127 19 19 19
-0.297358 0.237847 0.605876 134 20 20 20
-0.294443 0.237991 0.605582 136 20 20 20
-0.291609 0.238209 0.605478 138 20 20 20
-0.286717 0.236713 0.601177 145 21 21 21
-0.280766 0.234323 0.594617 144 21 21 21
-0.273999 0.231177 0.586205 134 20 20 20
0 0 0 124 0 0 0
-0.249739 0.215452 0.545673 123 18 18 18
-0.24159 0.210774 0.533622 137 20 20 20
-0.237812 0.209851 0.531151 135 20 20 20
-0.235248 0.209998 0.531387 148 22 22 22
-0.228098 0.206012 0.521216 177 26 26 26
-0.219871 0.200935 0.508398 231 35 35 35
-0.217169 0.200856 0.508223 168 25 25 25
-0.214647 0.200934 0.508492 163 24 24 24
-0.211424 0.200358 0.507168 174 26 26 26
-0.208058 0.199622 0.505484 180 27 27 27
-0.198641 0.192982 0.488885 222 33 33 33
-0.195977 0.192828 0.488769 238 36 36 36
-0.192568 0.191938 0.486772 254 38 38 38
-0.188011 0.189844 0.481815 275 41 41 41
-0.183861 0.188122 0.477779 302 46 46 46
-0.180196 0.18687 0.474988 332 50 50 50
-0.176954 0.186007 0.473208 354 54 54 54
-0.174965 0.186469 0.474797 359 54 54 54
-0.171389 0.185227 0.472101 420 64 64 64
-0.168236 0.184391 0.470446 454 69 69 69
-0.165303 0.183795 0.469452 505 77 77 77
-0.162296 0.183093 0.468171 581 89 89 89
-0.158959 0.182009 0.465906 683 105 105 105
-0.155687 0.180947 0.463733 770 118 118 118
-0.153141 0.180712 0.463697 773 119 119 119
-0.150179 0.179984 0.462355 684 105 105 105
-0.147215 0.179215 0.460968 622 95 95 95
-0.14448 0.178721 0.460224 810 124 124 124
-0.142532 0.17918 0.461979 835 128 128 128
-0.140146 0.179098 0.462379 839 129 129 129
-0.13828 0.179683 0.464444 823 126 126 126
-0.135799 0.1795 0.464551 692 106 106 106
-0.131704 0.177118 0.458942 597 91 91 91
-0.128903 0.176421 0.457693 633 97 97 97
-0.126381 0.176108 0.457434 661 101 101 101
-0.124293 0.176383 0.45871 618 95 95 95
-0.121687 0.175934 0.458064 633 97 97 97
-0.118973 0.175294 0.456941 592 91 91 91
-0.116546 0.175056 0.456866 599 92 92 92
-0.114301 0.175105 0.457466 603 92 92 92
-0.11115 0.173745 0.454422 617 94 94 94
-0.109041 0.173969 0.455514 607 93 93 93
-0.104781 0.170696 0.447415 617 94 94 94
-0.102837 0.171161 0.449104 641 98 98 98
-0.100028 0.170132 0.446897 664 102 102 102
-0.0975173 0.169619 0.445984 680 104 104 104
-0.0952582 0.169501 0.446113 680 104 104 104
-0.0926054 0.168688 0.444391 753 116 116 116
-0.0902811 0.168419 0.444087 743 114 114 114
-0.0875085 0.167308 0.441544 761 117 117 117
-0.0843227 0.165329 0.436703 829 127 127 127
-0.0825176 0.16598 0.438829 851 131 131 131
-0.0804352 0.166138 0.4396 885 136 136 136
-0.0786182 0.166866 0.441869 804 123 123 123
-0.0765927 0.167149 0.442958 796 122 122 122
-0.0749997 0.168451 0.446724 780 120 120 120
-0.0723482 0.167367 0.444216 806 124 124 124
-0.0705245 0.168169 0.446645 697 107 107 107
-0.068574 0.168746 0.448478 596 91 91 91
-0.0667193 0.169604 0.451046 502 77 77 77
-0.0648316 0.170433 0.453523 430 65 65 65
-0.0624688 0.170011 0.452698 411 63 63 63
-0.0604731 0.170567 0.454436 402 61 61 61
-0.0581155 0.170148 0.453563 419 64 64 64
-0.0546983 0.166469 0.443982 439 67 67 67
-0.0523574 0.165883 0.442679 458 70 70 70
-0.0499399 0.165008 0.440551 456 70 70 70
-0.0476699 0.164563 0.439554 475 72 72 72
-0.0451991 0.163348 0.436486 495 76 76 76
-0.0431889 0.163745 0.437762 502 77 77 77
-0.0410491 0.163681 0.437752 488 74 74 74
-0.0388034 0.163162 0.436513 506 77 77 77
-0.0366678 0.163058 0.43642 508 78 78 78
-0.0346233 0.163385 0.437428 510 78 78 78
-0.0325633 0.163661 0.438324 506 77 77 77
-0.0304705 0.163813 0.438836 507 77 77 77
-0.0282172 0.163044 0.436917 493 75 75 75
-0.0261177 0.163125 0.437226 475 72 72 72
-0.0238236 0.161882 0.434006 502 77 77 77
-0.0218802 0.163026 0.437149 520 79 79 79
-0.0197641 0.162972 0.437105 531 81 81 81
-0.0176233 0.162809 0.436754 537 82 82 82
-0.0154966 0.162615 0.436279 525 80 80 80
-0.0133904 0.16259 0.436269 539 82 82 82
-0.0113097 0.162923 0.437234 565 86 86 86
-0.00909157 0.160974 0.432046 591 90 90 90
-0.0070425 0.162077 0.435048 570 87 87 87
-0.00495827 0.1625 0.436214 570 87 87 87
-0.00284728 0.162026 0.434954 599 92 92 92
-0.000750582 0.161984 0.434856 601 92 92 92
0.00134517 0.161958 0.434786 583 89 89 89
0.00349361 0.16377 0.439636 542 83 83 83
0.00561613 0.163871 0.439878 522 80 80 80
0.00774713 0.164096 0.440453 498 76 76 76
0.00991674 0.164851 0.442477 471 72 72 72
0.0121083 0.16565 0.444576 462 70 70 70
0.0141747 0.164753 0.442111 468 71 71 71
0.0162552 0.164217 0.440641 502 77 77 77
0.0183659 0.163959 0.439863 518 79 79 79
0.0205118 0.164138 0.440294 516 79 79 79
0.0225792 0.163724 0.439084 550 84 84 84
0.0246747 0.163554 0.438552 593 91 91 91
0.0267162 0.163093 0.437188 642 98 98 98
0.0291901 0.165132 0.442561 654 100 100 100
0.0313785 0.165384 0.443133 649 99 99 99
0.0336494 0.166025 0.444704 606 93 93 93
0.0359077 0.166516 0.445882 578 88 88 88
0.0381272 0.166779 0.446452 570 87 87 87
0.0404839 0.167581 0.44846 501 76 76 76
0.0426821 0.167749 0.448705 362 55 55 55
0.0447902 0.167494 0.447858 333 50 50 50
0.0468756 0.167181 0.44684 320 48 48 48
0.049128 0.167463 0.447413 305 46 46 46
0.0513198 0.167523 0.447377 278 42 42 42
0.0534879 0.167548 0.447234 281 42 42 42
0.055027 0.165632 0.441898 296 45 45 45
0.057113 0.165444 0.441174 305 46 46 46
0.0598788 0.167207 0.445621 314 48 48 48
0.0614061 0.165469 0.440753 306 46 46 46
0.0634829 0.165278 0.43998 315 48 48 48
0.0648898 0.163463 0.434846 313 47 47 47
0.0676122 0.164921 0.438446 313 47 47 47
0.0695842 0.164549 0.437164 326 49 49 49
0.0704827 0.161702 0.429299 336 51 51 51
0.0725713 0.161702 0.428996 350 53 53 53
0.0752397 0.162927 0.431925 331 50 50 50
0.0774414 0.16313 0.432145 350 53 53 53
0.0791009 0.162181 0.429285 364 55 55 55
0.0815354 0.162857 0.430726 369 56 56 56
0.0835317 0.162644 0.429803 364 55 55 55
0.0858104 0.162951 0.430252 363 55 55 55
0.0878978 0.162914 0.429764 374 57 57 57
0.0892905 0.161621 0.425965 384 58 58 58
0.0919909 0.162699 0.428402 395 60 60 60
0.0945811 0.163513 0.430138 413 63 63 63
0.095947 0.162245 0.426369 439 67 67 67
0.0980971 0.162314 0.426155 448 68 68 68
0.100243 0.162386 0.425899 488 74 74 74
0.102307 0.162323 0.425287 518 79 79 79
0.105124 0.163435 0.427736 535 82 82 82
0.107097 0.163216 0.426685 556 85 85 85
0.110261 0.164769 0.430286 544 83 83 83
0.113425 0.166278 0.43371 496 76 76 76
0.113969 0.163966 0.427207 432 66 66 66
0.116205 0.164123 0.42709 410 62 62 62
0.117593 0.1631 0.423947 416 63 63 63
0.116756 0.159083 0.413018 468 71 71 71
0.11792 0.157882 0.409405 490 75 75 75
0.120107 0.158069 0.409377 499 76 76 76
0.122152 0.15805 0.408852 470 72 72 72
0.122647 0.156089 0.403262 497 76 76 76
0.1243 0.155611 0.401545 509 78 78 78
0.125526 0.15464 0.398579 511 78 78 78
0.127363 0.154435 0.397546 526 80 80 80
0.129688 0.154821 0.398067 517 79 79 79
0.132129 0.155317 0.398901 520 79 79 79
0.135025 0.156351 0.401067 522 80 80 80
0.136949 0.156218 0.400304 532 81 81 81
0.138484 0.155678 0.39845 548 84 84 84
0.140096 0.155224 0.39689 567 87 87 87
0.142213 0.155346 0.396756 562 86 86 86
0.143693 0.154763 0.39489 559 85 85 85
0.145684 0.154737 0.394458 470 72 72 72
0.148357 0.155437 0.395886 494 75 75 75
0.149807 0.154851 0.39405 514 79 79 79
0.151394 0.154432 0.392673 483 74 74 74
0.153643 0.154672 0.39301 489 75 75 75
0.156226 0.155248 0.394217 485 74 74 74
0.159402 0.156386 0.396865 480 73 73 73
0.161912 0.156846 0.397858 475 72 72 72
0.164559 0.157434 0.399174 454 69 69 69
0.16575 0.156639 0.397019 437 67 67 67
0.168258 0.157075 0.398033 437 67 67 67
0.168947 0.155841 0.394838 434 66 66 66
0.168828 0.15388 0.38985 444 68 68 68
0.16914 0.152359 0.386026 439 67 67 67
0.170356 0.151682 0.384376 482 74 74 74
0.172677 0.151999 0.385243 466 71 71 71
0.173498 0.150995 0.382844 469 72 72 72
0.174399 0.150086 0.380685 505 77 77 77
0.17461 0.1486 0.37713 496 76 76 76
0.176513 0.148574 0.377307 482 74 74 74
0.178404 0.148542 0.377488 465 71 71 71
0.179713 0.148031 0.376516 451 69 69 69
0.180193 0.146871 0.373889 441 67 67 67
0.181261 0.1462 0.372539 440 67 67 67
0.183231 0.146238 0.373078 399 61 61 61
0.184895 0.14606 0.373048 392 60 60 60
0.186464 0.145799 0.372874 372 57 57 57
0.187892 0.145436 0.372441 367 56 56 56
0 0 0 321 0 0 0
0.19226 0.145892 0.374687 318 48 48 48
0 0 0 284 0 0 0
0 0 0 272 0 0 0
0 0 0 265 0 0 0
0 0 0 281 0 0 0
0 0 0 281 0 0 0
0 0 0 274 0 0 0
0 0 0 270 0 0 0
0 0 0 256 0 0 0
0 0 0 250 0 0 0
0 0 0 225 0 0 0
0 0 0 220 0 0 0
0 0 0 210 0 0 0
0 0 0 84 0 0 0
0 0 0 82 0 0 0
-0.338298 0.245979 0.629606 80 11 11 11
0 0 0 86 0 0 0
-0.323508 0.239698 0.611468 87 12 12 12
-0.321208 0.240264 0.611914 101 15 15 15
-0.319107 0.240994 0.612779 110 16 16 16
-0.313938 0.239441 0.607792 106 15 15 15
-0.313088 0.241124 0.611162 113 16 16 16
-0.310091 0.241214 0.610435 112 16 16 16
-0.3077 0.241762 0.610927 109 16 16 16
-0.303998 0.241303 0.608899 123 18 18 18
-0.300575 0.241039 0.607428 128 19 19 19
-0.296399 0.240143 0.604447 135 20 20 20
-0.293666 0.240448 0.604519 137 20 20 20
-0.290328 0.240225 0.603297 141 21 21 21
-0.286122 0.239291 0.600396 136 20 20 20
-0.281535 0.238002 0.596609 136 20 20 20
-0.277749 0.237389 0.59458 143 21 21 21
-0.273604 0.236438 0.591804 149 22 22 22
0 0 0 151 0 0 0
-0.246479 0.21782 0.544607 130 19 19 19
-0.239835 0.214374 0.5358 126 18 18 18
-0.235361 0.212834 0.531764 134 20 20 20
-0.231466 0.211758 0.528983 142 21 21 21
-0.222092 0.205593 0.513509 174 26 26 26
-0.217286 0.203548 0.508438 179 27 27 27
-0.214454 0.203352 0.507968 160 24 24 24
-0.211468 0.202994 0.507155 161 24 24 24
-0.207976 0.202127 0.505114 168 25 25 25
-0.199512 0.196339 0.490831 200 30 30 30
-0.195931 0.19528 0.488388 224 34 34 34
-0.192362 0.1942 0.485951 234 35 35 35
-0.188948 0.193278 0.483905 245 37 37 37
-0.183705 0.190397 0.477033 299 45 45 45
-0.180934 0.190065 0.47654 312 47 47 47
-0.176839 0.188293 0.472459 330 50 50 50
-0.174119 0.187953 0.47202 358 54 54 54
-0.171147 0.187359 0.470944 386 59 59 59
-0.168114 0.18666 0.469623 433 66 66 66
-0.165098 0.18594 0.468288 525 80 80 80
-0.16199 0.185111 0.466713 585 90 90 90
-0.159021 0.184432 0.465473 660 101 101 101
-0.156259 0.183959 0.464812 689 106 106 106
-0.153448 0.183411 0.46396 698 107 107 107
-0.150492 0.182687 0.462641 595 91 91 91
-0.147033 0.181301 0.459681 736 113 113 113
-0.144678 0.181273 0.46014 840 129 129 129
-0.141738 0.180479 0.458696 834 128 128 128
-0.139558 0.180643 0.459681 729 112 112 112
-0.138233 0.181956 0.463565 599 92 92 92
-0.133931 0.179325 0.457397 570 87 87 87
-0.130979 0.178426 0.455673 614 94 94 94
-0.128391 0.177999 0.455137 649 99 99 99
-0.126166 0.178089 0.455903 591 90 90 90
-0.123993 0.178256 0.456854 584 89 89 89
-0.121331 0.177673 0.455923 603 92 92 92
-0.118795 0.177295 0.455455 572 87 87 87
-0.116365 0.177046 0.45536 604 92 92 92
-0.113855 0.176662 0.454899 585 90 90 90
-0.110985 0.175718 0.452976 599 92 92 92
-0.107484 0.173703 0.448229 607 93 93 93
-0.104871 0.173053 0.447024 627 96 96 96
-0.102041 0.172033 0.444857 631 97 97 97
-0.0993341 0.171154 0.443035 657 101 101 101
-0.0971064 0.171091 0.443359 672 103 103 103
-0.09448 0.170294 0.441712 727 112 112 112
-0.0919072 0.169585 0.440289 801 123 123 123
-0.0897785 0.169652 0.440866 791 121 121 121
-0.0866431 0.1678 0.436452 835 128 128 128
-0.0842673 0.167333 0.435605 904 139 139 139
-0.0822141 0.167514 0.436481 891 137 137 137
-0.0802891 0.167987 0.438068 885 136 136 136
-0.0783439 0.16841 0.439527 796 122 122 122
-0.0762146 0.168482 0.440041 774 119 119 119
-0.0745237 0.16954 0.44317 705 108 108 108
-0.0727117 0.170392 0.445713 607 93 93 93
-0.0710306 0.171577 0.449129 489 75 75 75
-0.0689235 0.171811 0.450045 430 65 65 65
-0.0667745 0.171937 0.450687 422 64 64 64
-0.0642211 0.17101 0.448542 428 65 65 65
-0.0609268 0.167933 0.440725 448 68 68 68
-0.0588175 0.168058 0.441306 458 70 70 70
-0.0566835 0.168104 0.441701 474 72 72 72
-0.0537638 0.165745 0.435724 475 72 72 72
-0.0515613 0.165494 0.435283 496 76 76 76
-0.0492824 0.164949 0.434093 481 73 73 73
-0.0470951 0.164641 0.433471 493 75 75 75
-0.045116 0.165116 0.434914 507 77 77 77
-0.042932 0.164836 0.434375 502 77 77 77
-0.0407589 0.164585 0.433876 497 76 76 76
-0.0386303 0.164495 0.433798 507 77 77 77
-0.0365368 0.164536 0.434079 509 78 78 78
-0.0343967 0.164374 0.433784 511 78 78 78
-0.032346 0.16463 0.434616 502 77 77 77
-0.0300669 0.163693 0.43226 509 78 78 78
-0.0280288 0.164009 0.433235 523 80 80 80
-0.0257443 0.162831 0.430215 513 78 78 78
-0.0236911 0.163119 0.431088 512 78 78 78
-0.021697 0.163803 0.433007 510 78 78 78
-0.0196348 0.164077 0.433794 527 81 81 81
-0.0173505 0.162321 0.429236 543 83 83 83
-0.015282 0.162381 0.429465 568 87 87 87
-0.0132089 0.162405 0.429598 570 87 87 87
-0.011133 0.16241 0.429631 575 88 88 88
-0.0090671 0.162576 0.430126 575 88 88 88
-0.00700262 0.163202 0.43181 602 92 92 92
-0.00492348 0.163406 0.432392 635 97 97 97
-0.00283559 0.163406 0.432407 607 93 93 93
-0.000748501 0.163583 0.432874 573 88 88 88
0.00134535 0.164033 0.434066 549 84 84 84
0.00346892 0.165352 0.437555 508 78 78 78
0.00558871 0.165546 0.438078 463 71 71 71
0.00771802 0.165537 0.438026 467 71 71 71
0.00983358 0.165541 0.437994 485 74 74 74
0.0119127 0.165039 0.436623 497 76 76 76
0.0140424 0.165269 0.437197 557 85 85 85
0.0161691 0.165419 0.437523 578 88 88 88
0.018155 0.164246 0.434388 610 93 93 93
0.0203696 0.165182 0.436762 641 98 98 98
0.0225305 0.165547 0.437628 656 101 101 101
0.0245881 0.165143 0.436482 685 105 105 105
0.0268036 0.165776 0.438079 698 107 107 107
0.0291471 0.167062 0.441348 649 99 99 99
0.0314705 0.168051 0.443853 594 91 91 91
0.0337331 0.168622 0.445201 612 94 94 94
0.0359269 0.168786 0.445513 655 100 100 100
0.038129 0.168967 0.445855 511 78 78 78
0.0404208 0.169504 0.447118 346 52 52 52
0.0425112 0.169197 0.446119 325 49 49 49
0.0446366 0.169093 0.445679 300 45 45 45
0.0467735 0.168986 0.445217 295 45 45 45
0.0484787 0.167397 0.440837 310 47 47 47
0.0498632 0.164881 0.43402 325 49 49 49
0.0514176 0.163151 0.429265 345 52 52 52
0.0534866 0.163096 0.428866 349 53 53 53
0.0555596 0.163043 0.428508 362 55 55 55
0.0579251 0.163859 0.430423 350 53 53 53
0.0601564 0.164213 0.431104 352 53 53 53
0.062026 0.163587 0.429203 359 54 54 54
0.06385 0.162922 0.427198 373 57 57 57
0.0649426 0.160455 0.420461 373 57 57 57
0.0680623 0.163028 0.426916 376 57 57 57
0.0699638 0.162583 0.42545 389 59 59 59
0.0718552 0.162172 0.424075 386 59 59 59
0.0745256 0.163461 0.427129 377 57 57 57
0.0767495 0.163757 0.42757 384 58 58 58
0.0786099 0.163266 0.42592 383 58 58 58
0.0804993 0.162873 0.424552 382 58 58 58
0.0826589 0.163032 0.424609 386 59 59 59
0.0831008 0.159852 0.415961 406 62 62 62
0.0850337 0.159649 0.415068 407 62 62 62
0.0871303 0.159755 0.414951 411 63 63 63
0.0892342 0.159869 0.414867 441 67 67 67
0.0910872 0.159513 0.413538 464 71 71 71
0.0937336 0.160541 0.415831 477 73 73 73
0.0963053 0.161413 0.417649 493 75 75 75
0.0994814 0.163239 0.421944 520 79 79 79
0.101314 0.16283 0.420431 548 84 84 84
0.10379 0.163451 0.421575 548 84 84 84
0.107067 0.165269 0.425821 542 83 83 83
0.10909 0.165152 0.425029 527 81 81 81
0.111444 0.165495 0.425454 485 74 74 74
0.112309 0.163669 0.420258 452 69 69 69
0.113403 0.162243 0.41612 451 69 69 69
0.114128 0.160349 0.410777 475 72 72 72
0.115725 0.159724 0.408693 493 75 75 75
0.117366 0.159167 0.406807 494 75 75 75
0.1191 0.158763 0.405281 499 76 76 76
0.120155 0.157488 0.401556 493 75 75 75
0.121739 0.156934 0.399663 506 77 77 77
0.123383 0.156473 0.398008 494 75 75 75
0.125005 0.155985 0.396309 513 78 78 78
0.126475 0.155341 0.394217 533 81 81 81
0.128154 0.154967 0.392797 515 79 79 79
0.129736 0.15449 0.391154 504 77 77 77
0.131483 0.154219 0.390022 521 80 80 80
0.132785 0.153443 0.387647 521 80 80 80
0.134528 0.153188 0.38659 533 81 81 81
0.138366 0.155307 0.391541 562 86 86 86
0.140454 0.155398 0.391408 541 83 83 83
0.142413 0.155372 0.390977 484 74 74 74
0.144896 0.155894 0.39196 434 66 66 66
0.14545 0.154366 0.387777 512 78 78 78
0.148045 0.155028 0.389129 505 77 77 77
0.148923 0.15388 0.385987 483 74 74 74
0.151062 0.154046 0.38616 481 73 73 73
0.154696 0.155721 0.390115 479 73 73 73
0.154266 0.153309 0.383913 477 73 73 73
0.158905 0.155929 0.390295 450 69 69 69
0.160179 0.15523 0.388418 439 67 67 67
0.1638 0.156804 0.392258 458 70 70 70
0.166487 0.157436 0.393777 442 67 67 67
